1023.14852584934,932.933840155833,902.242876641624,917.059528579749,874.088337886338,889.245347854316,883.071869596994,915.390648260756,916.977119310576,908.089470851823,952.976582221458,925.100954213347,927.904773302563,959.158325222985,1021.572181865,1026.67466235631,1044.55834884988,1133.62405940639,1216.65390939818,1162.78491162977,1118.21974738573,1040.90061624244,985.50853571677,1067.40294165576,1108.06540818289,1125.73393216803,1092.49899142265,1079.71558712793,1061.75917134141,1171.68118878714,1244.76846930721,1246.40209321931,1278.47163944143,1387.24787012292,1438.49458329361,1396.81486111366,1327.95032512455,1312.8869232456,1373.69108092488,1457.18881597865,1500.18866999414,1415.68623571476,1318.44483821332,1248.51350054652,1189.67711558502,1178.13421225126,1243.97989414801,1194.07605964758,1204.69157537986,1187.39913222608,1182.19105168142,1169.25275827467,1059.30401068356,1011.4396515814,1051.44911644485,1013.35881182504,1050.03837748558,1089.59915107071,1132.32433262089,1183.26513083583,1247.331708438,1321.64012833302,1369.25342213245,1399.96655813367,1475.95921045805,1480.40834187067,1475.99386286698,1528.37438558182,1513.41216997321,1544.97311953223,1599.36573539688,1678.83236982089,1770.40502611964,1723.62235186252,1696.08062382016,1707.17815575086,1783.67015903345,1817.933042542,1822.26337757836,1880.65986939842,1982.58368063498,2057.4227158789,2115.47275867462,2136.9670690424,2157.14097058504,2187.98568278692,2235.72272422924,2280.14829021516,2321.28318699106,2242.72794378329,2169.73279184578,2063.77955490896,2030.6844352596,2088.12545165996,2031.17482305738,2036.59348752864,1993.70837473903,2044.88332476329,2037.85365097059,1991.59285472723,1925.48153242369,1858.76675267564,1753.30531520575,1649.62146209352,1565.08848272278,1547.07886295297,1538.34658981518,1481.16837228333,1427.70644153222,1404.07756551012,1395.12140232091,1445.80081727353,1486.78308841518,1483.90726050613,1447.83067343796,1422.5847283805,1377.88657998556,1367.59542256266,1350.15709753845,1306.50046531894,1171.38153737779,1179.09431289375,1216.76158748381,1188.58727183887,1096.01638870717,1083.99989146395,1118.72296152722,1132.48999652113,1027.34876131524,922.747540452129,849.238926154938,891.479449020957,1005.46649605119,941.772741567184,833.760654573393,828.070817217022,805.551389220844,774.505240281948,743.638217879813,651.670719703565,694.701245962162,742.948137548266,729.725785039136,701.159404439996,720.495327503741,735.259648576291,721.34787122098,694.949029639338,688.649302916273,699.00185855861,686.089471097121,680.359550684871,680.023448391742,635.311753026775,610.190758020263,628.617701761131,597.624959162235,565.463402264736,581.498196246057,528.607615476977,460.10103457431,439.956428992843,440.403979588041,420.012151380698,405.823542461288,389.292498469827,382.688264156877,435.268238782777,515.262929095009,494.488180246015,418.450724712185,385.238265882042,422.41998595295,497.750684738812,454.963263942762,425.099511732639,431.14454071756,450.603049247136,445.593411828988,411.48259795704,373.224856939925,372.107045193176,353.704215521341,349.363598007897,389.080859690898,399.245555799934,378.017553952279,367.141243361794,371.592403781982,374.278073803937
914.686157473693,934.513381695861,968.135820618079,997.714070331788,938.337747863325,871.866686624396,868.864619909947,872.522669047478,872.636944272137,890.816144356489,923.515500032736,921.733654000476,956.888380931155,985.991470776768,956.874157619316,964.816447002122,1012.33989235233,1096.55660757835,1199.21468251179,1186.92595602581,1145.95983110462,1085.57267033517,981.493686695708,1034.42814725575,1026.22828485344,1009.32259541174,1016.91341838794,1034.56854103836,1078.56746649418,1144.81532804226,1166.11337470331,1170.13340241058,1232.90469584905,1323.07175669671,1450.70441430594,1437.0690466443,1316.11907899669,1320.0021277683,1413.22848611638,1451.16490976085,1508.85942888503,1430.83751686947,1339.03792688214,1283.82136156114,1218.97981596041,1146.50995252454,1165.19720181609,1124.9165960014,1151.42384791806,1119.20506692689,1083.25157599674,1072.69668443094,1044.31172256235,1025.87714645043,1096.25546796256,1066.29322832184,1022.57361346596,1080.59421926795,1119.86272076074,1169.2326077885,1228.4987396048,1266.8572812093,1260.57031898336,1337.10950551118,1424.99335837526,1395.94416941269,1399.85085637606,1441.22912603678,1422.8823945871,1451.19384827601,1505.33188578234,1603.80290068993,1685.56474315652,1623.88652753819,1559.73513197149,1610.84545554438,1673.62940161615,1681.0805531691,1691.97447432183,1803.53107952629,1870.31924724935,1931.01326055778,1964.12282928205,1982.75987530201,2046.66351566508,2112.19997973824,2203.41511998946,2310.46763891984,2329.30600117694,2219.05633655881,2141.15054149617,2056.72438963045,2088.69489307903,2175.15263101626,2140.10230967982,2107.18066746365,2089.56807350033,2124.97264654676,2118.24497106552,2050.22718533496,1975.74155079436,1870.24744310346,1759.84528809977,1671.38750105274,1621.77284786529,1645.44839530466,1634.03794922256,1542.70547466504,1478.81672706988,1458.40653796274,1413.97940807474,1346.87374707606,1358.20449064022,1339.45499372191,1313.95823547059,1323.81988858814,1338.71325268766,1245.64645717692,1199.85318059542,1185.19791065836,1127.21346827962,1096.80287707579,1095.1653048623,1076.10725416325,1088.63175479063,1034.47956912665,1014.19529826376,1051.07190898009,1014.53786873998,942.571314366367,821.928473373003,852.771708111228,950.58736210856,955.39887233647,867.792824589956,772.338603191722,722.402567196399,759.364484721708,773.120446643577,699.066811294879,623.486228570331,650.221796435839,685.693944111618,678.848389930164,648.997036312404,654.676125215627,681.457621223662,731.985589423322,667.265216046937,665.985871212547,675.583883779336,661.689101769401,654.400635552351,665.031586307161,632.988798592853,635.830633308551,639.314456707984,606.766138682178,596.989086154898,562.622225314739,507.432560904415,460.672227135844,485.810961391353,479.628705424153,422.914827817733,395.805633909221,388.879065650272,398.23603417973,441.594904467856,518.450084963454,470.658312338893,383.002657129427,393.993971936681,487.909662771772,510.819633127549,460.927210954781,459.800563520469,459.345536939397,443.896365737464,411.984435339935,392.757289753654,355.175590359183,370.451033979876,370.2109543587,394.904437383336,387.604798444305,371.699178217395,394.25818167602,403.479878901029,382.234573719819
934.053812798392,1032.04049552359,1055.00451920683,1062.27174773739,1046.65723418659,986.844992748897,896.280360107809,890.551589345248,911.865667673198,875.988393956934,884.212515047563,921.458080809478,932.91236103497,939.527751744695,942.55980765142,968.946816210944,997.10858007128,1081.52510683563,1170.1619952075,1138.20030080915,1126.28419141211,1054.81166111523,960.699208566631,971.475972726731,979.02786032463,1015.80764706143,1042.22391063507,1018.18440050289,1057.58731571018,1115.54997508334,1156.21628472929,1202.85759594019,1300.69079337668,1382.29175931543,1431.04518767867,1354.53960810379,1273.45053303166,1301.43310603399,1361.38911945959,1453.13550956215,1521.51836068919,1426.25695491818,1330.26587550912,1247.58746844,1180.22213935937,1155.63951965037,1128.20068248189,1110.92086719255,1090.25919629939,1074.01937494398,1068.0628408341,1097.49217710538,1110.77127777548,1058.39447353145,1072.78322649401,1140.62267786971,1082.42604068376,1048.55490656571,1038.97421949313,1062.37651085671,1098.39005300688,1134.64839758063,1211.88470231007,1303.85481411713,1358.3435824373,1287.99696623934,1286.41916338371,1324.96611463029,1354.62723283399,1412.33324245335,1503.16273550729,1607.4278065235,1623.25808464325,1535.95040341122,1483.77308942837,1489.67770228993,1525.57577989194,1567.15658059618,1640.55470113746,1700.17288509782,1773.55930367162,1834.27345187574,1855.75059707091,1887.35691034952,1930.22624338386,2005.64304297737,2101.81355578789,2197.85861652993,2289.54952886712,2271.50304799433,2178.55426275158,2133.75916366727,2179.98074505553,2260.43270811871,2244.40788427355,2193.45023096083,2201.21332356766,2197.20270625293,2151.80332057509,2079.37607417816,1985.78025352582,1876.99476691157,1793.47758340244,1750.92415375902,1690.94208320791,1707.80173164364,1675.78568267366,1595.71543219448,1569.92510596458,1531.6199619427,1474.00778630447,1372.88158849976,1299.82914896909,1297.73306105566,1285.50274433563,1270.37971170981,1243.49061511158,1225.54453498931,1237.08328088108,1221.81772488879,1206.38016315294,1119.33007477091,1053.44814613566,1041.98764181871,1020.70369841548,986.238781572251,946.483236893083,922.631797301236,884.00782987893,837.901799128362,791.993358958267,773.40787323266,807.642964931973,841.014480794185,843.744561144827,787.615581395951,678.978350153586,661.461012362357,678.252619574914,680.978850557503,624.085740445051,585.377510776594,624.959733133925,657.177415006851,652.201514362132,618.594799104053,666.857605434785,709.560726675993,673.730642564603,637.779519375876,658.08531483003,653.02712552296,631.295433794863,658.908135908222,641.439651793864,621.385803678613,618.839762670561,600.322982045223,607.151050432245,585.064544913645,547.999794046726,488.916667620131,497.47094458416,495.12470824583,449.721025732967,430.057888454878,399.72415100851,405.594832978551,416.912458589607,460.161799952742,457.350978810457,425.268210573277,395.574398946801,473.068140927107,509.728371317695,500.436299856334,468.219408721618,458.153874243109,433.83745340633,413.359359331067,380.733679916414,401.860570659495,418.469581503255,399.733719717851,384.111573105084,393.123462661687,406.55464639638,411.253803039185,389.394204216231,379.578257216086
991.870606925343,1048.40985330798,1087.71478815075,1086.81902481473,1036.37675618389,1001.56759994514,907.869315247989,891.905766961346,965.505720638226,918.818702206131,880.016279198344,882.068927151542,878.833770592419,891.917235321925,931.358982029683,962.384864509176,1019.38711109046,1120.15846862695,1169.98612879397,1078.0926707628,1001.25495790271,972.206953564112,987.363171454473,1055.74467305711,1060.07790904218,1104.94311868524,1158.0882252594,1103.58387694869,1053.01926673554,1127.37947828538,1159.67065379442,1198.43020729032,1294.20760442259,1375.38186950063,1342.76819306286,1286.13677415029,1254.69930457502,1298.73848753743,1411.12110832521,1528.41822516779,1524.95421227309,1419.2176659621,1310.01993278602,1246.64464333319,1255.97115763253,1211.70860331863,1236.75523084087,1214.15627090618,1192.86685230229,1186.37480405749,1157.99697634957,1181.00877403935,1185.08805986235,1068.41191239028,1082.54174598057,1193.68681888664,1189.04363851766,1159.49263477686,1104.35530192429,1052.63069593277,1066.25837779328,1050.80932605452,1106.90143561666,1194.06962503338,1240.18271014386,1190.02645480822,1248.96888730813,1326.10786001856,1390.51753586888,1464.79161959702,1529.587564454,1555.36299728533,1600.63357192428,1547.19439931782,1454.43392368989,1423.26427164733,1483.23464003582,1568.47969050545,1583.89461061573,1591.00848500659,1679.9684777744,1750.66385795915,1751.94054050096,1786.04404753946,1850.4177971779,1921.07834471142,2002.31210579714,2107.99460572577,2211.76563855926,2245.61458726254,2219.164617495,2193.79534692184,2192.36646411391,2223.41315555835,2224.14502419293,2205.4310235736,2201.1030311959,2198.19200932988,2164.87690767104,2099.40842686739,2021.33869230253,1955.45831508392,1916.88715455989,1853.64616814965,1786.0219288595,1776.85385970307,1742.53144988772,1689.03181226158,1642.93806002626,1560.60884252382,1452.84170656696,1364.41437013251,1379.30054111546,1404.27076173758,1393.59908969909,1344.44064487944,1300.63076090193,1306.4043861521,1287.35127328062,1312.03177617354,1272.29324824049,1194.03760983503,1174.27276484312,1201.86240680275,1171.35433520874,1135.65728728636,1065.64486767642,952.187712946651,943.456307433283,942.695304341654,879.439606312082,769.158745235021,713.087993657916,717.731167934862,715.125045190794,689.176636733767,657.816003818483,697.153136585715,655.417441141355,621.389505980468,611.049397945049,609.909398905339,622.679979845678,604.590297033698,606.900665068035,586.198200366693,596.478595878678,651.908534856336,643.658952206379,615.330775955832,653.19330590932,645.090878474602,599.297420694136,626.099312356431,646.99082447469,632.064754384079,610.899974387823,596.434360152012,579.595240765727,573.509158884241,533.489347763569,524.260699058894,533.120355880038,513.435085624869,520.746453995268,498.6546977457,435.123690672757,413.433227571987,415.91640744589,404.920532739755,427.832383381204,480.884211561259,419.803487642749,425.265472893667,461.490766005551,463.826935876254,456.67247802429,440.868828924468,407.053726694252,394.701082025102,404.630988304528,442.994558122173,414.80113855398,391.089274613548,403.859196779103,421.928251377789,398.801864793041,374.712337235133,363.864140945143,357.811347338161
1022.18127439575,980.29812455536,989.057561269315,1050.29905069726,962.345449615821,953.262746310736,911.990539764076,887.322922306631,955.763193876908,972.308494453696,941.704560165902,906.575870776779,909.665062974937,880.375880770845,924.10781164093,1018.87778701118,1058.83509539748,1108.11967901714,1142.18510372277,1088.67104867353,994.549479763327,967.794768127124,1052.93361637362,1118.26653489115,1161.91293785779,1193.09704018148,1254.82190951389,1170.59453309416,1098.84655810459,1113.52177048854,1144.81914912287,1191.81955105269,1271.62905962024,1375.54107228048,1290.62289139178,1236.75960120593,1318.12721853067,1378.05938065517,1461.67365124411,1472.27520267592,1433.24777989242,1449.80750691519,1389.69696440916,1363.40869980994,1323.48854885038,1279.42567481653,1336.75491812556,1317.12400612382,1267.48375453807,1277.87055260454,1261.85020041121,1255.17103759021,1175.83092715788,1056.17340465404,1105.25630743837,1223.87470542104,1276.41314145497,1242.58409249819,1148.25641026178,1123.76889038472,1178.62348638758,1096.12398512629,1051.19863514385,1114.35162181828,1140.3868246546,1188.9578909806,1277.89200971575,1335.45592117823,1351.26706680734,1404.61630506013,1423.55631590091,1458.05368836243,1560.05797201462,1577.81737465786,1449.05179729354,1396.14044342332,1495.62790455478,1529.48060279735,1510.9613656587,1505.5575842425,1565.85996027231,1623.48190693319,1620.40614914073,1688.69917310223,1794.28219035138,1886.11348966031,1965.26374533186,2068.22054670468,2121.42260063396,2119.80613144303,2140.6957082194,2106.27754398288,2091.12705955716,2105.54105200702,2108.08722110863,2092.8913722368,2086.35067124245,2093.22760495861,2108.81045717221,2103.62654522551,2076.00194694195,2033.00456657772,2004.75312770427,1939.72437723286,1911.53764304619,1865.78458263802,1797.51066994714,1725.24228931837,1620.66742379018,1512.80096733646,1436.85524603649,1440.11236272308,1483.17060567667,1497.42375449713,1454.77494067376,1403.46186505609,1418.02337826055,1412.69670508795,1330.06614259942,1391.72841587925,1386.17341753913,1300.71588279207,1303.99098695694,1330.45371857054,1306.34442819764,1241.23873111199,1171.80208975413,1097.64978909548,1097.64285396209,1072.86604817422,996.170938374097,891.170917590859,832.858686591567,773.568313400699,715.994636658089,707.303518547917,746.15606091459,729.750920200724,671.907924607661,703.397044653601,682.475593486784,688.447290487707,701.239954327984,653.410560192393,607.137570489611,576.976206021577,566.092091507083,574.142795949411,614.814930133522,594.807064090531,614.371058266119,658.019134359869,628.695829344298,588.951219707142,622.584571586899,639.120178782764,617.513866831096,627.161159857707,613.676604975304,585.444435222141,586.76670910819,591.178465299756,562.250988143916,535.773576543752,556.601928466406,522.678640113439,484.438439199003,451.530485237848,435.560565491593,422.21537197711,406.420231877193,434.551288565697,466.183024253795,445.197433499383,455.58459899247,462.562524528912,423.965473006817,399.067282747366,413.789523556802,445.717249790108,440.900327194049,414.343926305517,388.594987309107,398.245009803711,424.29463760778,435.842685253428,398.677184326403,380.311898153841,376.339376176185,373.205085531326
983.132291477291,961.191733417108,955.142097260255,1005.88061326676,975.803236835008,914.905120178855,893.574637924076,896.449123321028,987.681322298732,1037.4420540688,950.26425893241,928.172608134741,935.980988448837,905.955113034279,894.39433990721,938.10916678306,993.998565249516,1029.11485552473,1070.02597553131,1021.22471112593,968.192001639272,985.520146095118,1045.47877113502,1101.03434806431,1188.05974958901,1236.52857289122,1265.9362972361,1236.43375949495,1209.18637736489,1227.11314846538,1245.82481009378,1303.46915555713,1345.5186625136,1393.3619116151,1284.01647394985,1242.76036976667,1313.08562393696,1382.72563829578,1475.73729497391,1479.2447766459,1369.72995488655,1386.96872790798,1448.78445800986,1472.02988217206,1402.77628011216,1372.38279300654,1431.3390208872,1441.91566504769,1393.06942751247,1385.09297614771,1339.67371875502,1260.21245804778,1144.77481106633,1055.70517277823,1142.00571645745,1274.39231110995,1340.68806268045,1300.73741776575,1195.36014807576,1215.3543581458,1266.37243171827,1201.21016378133,1140.34732278583,1081.98946320184,1149.63871856617,1196.33385300512,1212.66868751411,1222.64335398628,1261.52537677544,1319.45393760565,1310.4647364299,1365.56931744254,1455.13096583419,1491.94269032889,1410.96070443247,1383.12053683386,1493.54557935392,1448.16471228284,1429.55683963909,1446.07334799872,1476.98338094674,1514.85949637985,1546.16530150938,1632.74183997957,1757.55746951077,1870.57014613819,1938.74369391082,1976.28347927005,1985.77159473921,1972.73096942375,2027.35210025836,2008.45388534913,1989.46717403556,1989.05832828859,1980.44349812609,1961.58782821462,1959.92535943177,1961.72841922059,2002.09644710539,1997.3312328065,1982.34406155589,1970.87191146229,1998.76073459912,2010.23568709844,1985.18892779998,1897.75127521947,1773.88739965972,1687.41335810991,1599.62609196734,1525.76770022718,1530.99373287766,1569.35444982602,1581.90291314629,1572.7406258118,1537.39196449516,1528.62447126231,1523.83085473693,1459.9811978473,1385.76270397737,1427.94533538785,1459.00005838964,1418.71020865241,1356.8415815596,1292.74454296962,1254.16091393268,1209.15218377561,1189.89912708961,1200.71703606258,1173.00369071237,1118.88662719545,1092.76433181316,1028.41029486351,983.470022078651,925.679932879992,881.550368423572,869.663616750012,806.319815316993,696.47209067965,778.455647719642,844.642303347389,798.625417436266,795.154188146469,763.020880849302,691.338530333133,667.785438843322,632.440058554092,620.990616112256,547.279643189632,559.622423031363,584.235998628299,582.848806771133,598.964716255639,632.84527927665,605.90410132865,569.51183507523,603.281823794302,600.336878546637,624.478291427323,650.931993753585,633.481039707644,637.32114123744,610.044013499958,557.406182115862,559.131959264473,591.684978915139,561.794957866817,532.052328143892,504.692948343725,475.303783501,451.244664650012,425.078306286465,437.457081885721,476.698462586265,477.213562722422,451.504380396919,426.919567338703,421.65728822659,435.512046793147,441.116956632687,458.360095373379,440.29121537536,412.164186982342,411.91318868778,428.137117278756,435.481516936407,431.315043086567,433.588776930004,422.670756542521,409.56662270442,382.973845342931
976.69136227459,953.017930294666,936.798221017139,932.824437638941,927.153223812969,909.118001922921,922.52069661336,920.406123001968,994.77797892684,1059.42651483466,981.940784812834,961.349982590609,929.985276527292,959.397298399417,919.858589982136,887.824051462712,925.896426024143,988.803317697779,1052.02031868212,1016.92088355634,938.788375372678,955.886040158371,1024.98080193959,1112.33350008687,1133.95192101448,1147.15813366039,1162.00520034671,1208.78820120583,1146.9427539905,1165.68459836349,1170.14451559185,1222.15551781912,1343.42124547966,1376.30175649286,1287.9450122353,1213.57296797981,1247.80093358611,1315.68017524639,1419.26890791107,1440.81340121197,1357.81776517357,1340.41697994182,1435.83446075526,1518.33838317721,1513.40097970234,1486.17321544934,1453.94341862708,1436.54077322564,1403.84971686894,1395.86465810625,1360.21171269613,1246.02482453689,1133.28257607896,1090.94752306323,1147.22670193914,1212.08330528767,1321.958033409,1374.61759955503,1283.40943871756,1300.44064120587,1274.05802261236,1224.97562595449,1145.0014649564,1121.85013443903,1120.72293858942,1135.23152246161,1143.87949795497,1167.03200759086,1201.91990188881,1193.45740096883,1211.20721619628,1263.60977187709,1344.73724144946,1389.70911233429,1326.94079514138,1319.30407595268,1370.62875715633,1383.31157010456,1441.48236360731,1481.10926314841,1513.24749725074,1568.23445721367,1619.17488846503,1654.70954217763,1694.21638241743,1774.11865176552,1824.41525798381,1848.56450623651,1855.26738983092,1859.16984626501,1913.10267393893,1927.11442866428,1901.48313008523,1897.92535846342,1835.207484872,1812.51966200497,1826.15264263742,1827.79351026285,1865.93875339641,1841.85898075737,1833.86331704476,1829.30351637435,1882.21775886993,1911.64014801012,1922.63653601246,1898.20568538783,1809.50663237791,1756.67006410524,1696.14023299538,1632.19745895237,1633.47542019159,1680.14479786714,1681.50363547108,1696.2631182374,1687.37067438041,1660.9609345187,1622.44549143618,1523.95987226734,1474.86485576656,1526.27289088388,1479.92261968271,1405.8787855308,1301.91997549726,1214.00738866488,1162.89076014561,1146.00054253358,1115.94793643002,1100.38153119592,1088.62389063041,1049.12099672636,991.192915227469,952.082029934665,914.78457142243,884.26671551728,865.806111387747,838.092568922378,746.07167629991,773.963692668731,884.942903265115,938.156040500685,905.925566375925,870.812354764703,829.766614915288,775.802322762917,733.154716889621,702.548255427424,648.185180183185,599.501645421601,568.230359081001,535.398069571922,559.033249907713,555.522130739241,548.753541704515,580.238819537776,593.497480289779,548.012768771566,555.129073488853,576.854679247194,624.728947906266,644.831738256832,636.864090164649,616.350520326282,571.597830594916,563.263369644016,563.684333275991,560.759845792642,512.647739977067,515.837832498635,506.618504451686,468.351855515175,432.75694073151,437.818136925903,476.091390506385,482.770041568849,448.648695336695,424.235525602896,441.575827561815,472.617749447276,453.983182035212,426.363643209679,438.518183933299,473.22249161342,449.954458619376,446.496479844048,437.059084124339,444.648103952573,453.849602658969,448.396167768331,414.571722286791,382.296730308273
1030.45340251573,1004.28027619978,965.123574182975,921.520835853849,947.572795967384,932.765504539541,961.196073497212,950.267982120604,965.99440272899,1079.65919349445,1036.67653101317,977.264910104855,940.456536701774,986.439121733418,959.190596644193,895.74807002763,900.032947097697,958.670383989165,987.012741653892,972.131327719295,920.043860228065,954.893663360829,1004.50693710498,1048.32788928357,1037.81721982461,1061.82218981814,1088.42562661461,1134.13639288296,1081.85595370877,1103.95695987229,1158.66260896529,1202.86453376254,1332.7340099207,1398.10649334681,1267.44899621463,1209.43051999084,1295.22404208454,1377.34379954226,1385.0324070514,1327.61805988967,1293.79599800263,1355.23349546696,1459.09224713469,1555.45798511305,1554.57291309326,1465.05331925967,1359.08766936926,1283.17467968135,1264.09829506501,1296.06789876365,1315.37202145242,1224.62441217783,1114.31913233287,1162.70431689902,1227.33488388867,1267.53164923177,1340.73447323785,1440.63372590663,1409.66750505263,1359.67538661781,1260.36275365731,1177.5628876618,1145.58797970666,1218.68675976239,1223.21740031255,1241.64642811302,1226.16710244059,1166.82294514888,1172.37337671167,1234.87271972416,1236.38613089864,1217.319342792,1240.31020937331,1279.03817672325,1295.84842976619,1353.71480497917,1392.21452600066,1430.13033231337,1461.15647130351,1483.16977267509,1510.1924035156,1555.61594020398,1583.43298787013,1601.20534817972,1651.83312606451,1725.36178873284,1694.63599000597,1710.93983267633,1710.1340749242,1754.00701111771,1787.65273371815,1801.55604179247,1792.80873543875,1794.58854426182,1687.44678769621,1643.13833223728,1664.66089900951,1674.54620470329,1733.80090389862,1672.20786970129,1673.23140764823,1684.23297129664,1745.18198945471,1765.16505593425,1786.01225610211,1872.72718068557,1892.77288847691,1832.8782129894,1767.15385904516,1748.82158429723,1747.84162513751,1772.74677246639,1779.4341170235,1822.23806398526,1793.93178050282,1741.12175787141,1685.78057273203,1622.45463469257,1588.49308333316,1601.22087499341,1511.71969081871,1431.71396503866,1337.28695345414,1242.68532864052,1227.07018311584,1241.27497774462,1185.65511836764,1116.60459544519,1029.3356055352,999.298341039514,997.529912931596,952.335807204487,905.473001917617,863.934851471747,822.714404576596,845.354137003481,846.384798421519,901.936000368946,940.146958723081,930.415720970016,909.967078363991,881.476980009361,882.725410450999,836.760872359914,796.398280867496,747.935635785502,699.547368359693,658.413080762854,617.899133895808,572.031992545632,528.808045166415,521.586832250619,527.429760718341,517.218888963766,553.7955154365,586.905475224855,549.086699589444,521.830119290113,565.290476308126,608.313232256942,622.570889383774,597.871832751764,575.920707083495,547.673982736325,509.923974064599,502.851206867219,489.411434786216,493.343042511341,490.37933362746,453.402698241685,417.357459167802,441.648489042979,479.498032061287,474.55656213229,448.113219729996,443.252228961423,461.501423061438,489.300096593526,458.617473831752,426.367641216324,427.988543383101,477.547111144331,485.070151981638,463.480584862013,448.647408996151,446.778426058137,462.201563930292,455.616270011293,431.755567812307,387.349169899678
1025.16425362028,984.42477504631,950.793188221454,937.33683456328,989.343304781385,942.945965760652,998.226175899686,995.275047348952,1003.11128255103,1109.78340524354,1083.76924348811,970.103675088432,1015.8084751925,1019.91977849271,948.838834041032,918.053577899333,902.355512220705,893.391580583537,917.099332699591,904.285655177838,922.938153588663,976.270350061318,989.015195328929,972.273190449082,975.653099316475,1001.39888900222,1024.76391385173,1030.89753378184,1101.77972102946,1169.63551866381,1208.53726718809,1297.0209203588,1348.76279613446,1348.24155105417,1269.20526582831,1195.65634556681,1307.34751578235,1331.08287384659,1328.64454865604,1272.05211281513,1274.63767124887,1359.36422863397,1424.23991503519,1535.34053519991,1532.47625426276,1427.57225263124,1334.1331826008,1283.16715794128,1257.52969790485,1202.33751637282,1190.59682620535,1158.47510507609,1128.21324599277,1190.86378412255,1309.47464976702,1380.72022576687,1429.79789886891,1513.39029118989,1511.21744208519,1403.74955060244,1298.98094861668,1228.6724189695,1178.94792111082,1232.46306888802,1314.78916753986,1354.34331910418,1320.47505976116,1238.98704953596,1214.95688218438,1315.92097951947,1329.08705151311,1304.91403573896,1255.47969598119,1242.31955432579,1308.82627834625,1415.30063093833,1479.96442910475,1521.25061308791,1574.13207060218,1583.10990141356,1537.10710750065,1563.68332073328,1567.1548087739,1584.22211743102,1691.63602716232,1730.92659908497,1628.90348120491,1604.82862956053,1594.53476361118,1629.84652815775,1652.2300287671,1656.22504101959,1664.77549370226,1669.14322795157,1566.68587320352,1502.35367561276,1520.12305541206,1526.46153284695,1625.29670875952,1531.25732849819,1509.45572780739,1541.14292220968,1582.7045853134,1598.65368138467,1682.3399282,1785.47230062582,1846.17865000743,1830.02286880751,1734.47671801746,1725.32393320382,1774.83275979568,1833.31087481739,1898.69033368331,1918.06301732292,1875.33464077483,1818.41142594876,1765.50570228355,1718.33506391897,1682.16308665585,1652.29182250618,1575.08176650258,1477.40522963853,1352.02542201437,1311.10371189681,1341.12650338956,1319.86307957357,1261.42119851349,1161.23143396628,1062.1780589033,1099.67441621121,1097.49615500204,1024.0624350002,998.662021031218,936.247631584845,954.654674540629,1029.17324460071,1035.69906065573,983.088211352385,955.992137592515,941.44722795185,925.568732280893,912.834364388203,906.574236340871,911.533326067728,865.164167749773,790.815914469104,744.42324481049,710.726042320094,669.300155166449,611.861239581185,568.434761112165,544.819872746055,560.771412225873,545.706848976207,526.681942679251,523.757162188416,558.844920829779,529.571417207039,483.039983016626,503.497731963568,560.827512080407,574.41228114836,546.747563657751,515.107556607072,483.791124686479,488.730016154995,472.810007763715,464.714809362528,460.02620913247,442.609168602839,420.224580422278,444.044610415612,477.794717956124,474.726575302798,465.695119584041,467.548067855084,491.960431558047,472.622732303113,442.95987466368,455.835443531604,453.859282495413,436.535438669593,483.622991974945,500.183484761259,486.971893422829,468.021152267434,457.75900801093,453.198840431625,436.449858985038,421.188814728209
1021.85607573501,1032.39554222104,960.759867852498,941.870980607998,1007.3070204262,1016.7472981523,1080.68916270824,1047.5022494274,1062.49594404644,1140.37511789393,1063.26285507276,987.231089753971,1045.46935268629,1034.30253702174,948.052850123699,949.515143421182,952.506568318856,901.943617429959,899.688456739859,917.997490046079,937.069803797736,954.334525063848,978.731323861873,995.040995972292,1003.49144734715,1025.0875005385,1108.4391092315,1088.78378456972,1074.23080161826,1117.0119230767,1182.96929624522,1287.89028856344,1312.28971276936,1223.80125639211,1185.27495529407,1194.13704994971,1218.17748868486,1218.06095737007,1257.43350451634,1243.03774323996,1307.11270081097,1358.70081005802,1425.39786872387,1472.8609238628,1497.70146849433,1481.12256982117,1417.782974099,1376.86748330296,1321.37462343321,1205.44542326507,1194.98828779953,1244.50308357848,1204.44656038784,1158.89138612107,1238.00850497981,1287.48923735141,1352.64150436224,1457.39575982586,1544.18698463406,1435.59575998418,1344.04395781108,1269.87666410894,1190.5439059233,1250.14943440331,1338.27653639998,1401.63868886519,1356.87936117391,1255.59330080874,1228.90443810248,1383.54130293151,1422.73421879429,1379.05437290449,1363.1376296764,1342.44987504017,1275.94539524103,1313.93584762038,1377.56753623006,1475.56720824403,1602.19089157575,1656.60579872976,1614.93751630722,1650.53162219281,1682.79908783765,1632.2439073432,1707.51631329051,1753.46318793193,1642.92189103697,1545.58766650407,1509.18613687369,1516.36391763708,1571.20840947353,1533.6937220306,1521.90380560311,1550.05885933278,1537.23223141429,1435.37206860133,1409.80489432601,1432.895843276,1558.00281034047,1479.37743556686,1409.7906730018,1446.85404845822,1465.00643896186,1560.86782162411,1665.78423969969,1666.40988910453,1767.92540663402,1717.78858259582,1599.31701852488,1564.05683931583,1603.88524831483,1735.20292178551,1834.57381574933,1871.93535092592,1905.69974872357,1890.21801590831,1855.68072359028,1799.54212035074,1742.96564930092,1668.8572398216,1567.73344498197,1485.47980491948,1420.82465383667,1425.61029796647,1432.57736770314,1380.10147762612,1292.35106532991,1183.96343790852,1122.47930087843,1196.52748372281,1172.79749987674,1138.72846643712,1069.32092498018,1025.17866804745,1090.54096273279,1132.66942164798,1113.95438499983,1053.92876758978,1003.9255022603,962.642518005045,932.665453985805,905.23355422683,891.943703868688,904.689075511591,913.852920280926,901.671114800722,843.500429992341,767.935475782014,709.968743088131,664.814697460934,604.207347500491,576.031485486614,567.887118279375,570.767821786977,580.710988338525,551.502731462543,521.576363771113,512.125020573347,521.75179412627,500.375588535332,479.408338857414,497.641566478549,504.86192328633,509.178974816986,475.15474831773,451.609784087628,440.278901509102,439.45275615772,439.172206573379,424.938287269507,438.268049725301,471.810276383995,474.63319669794,460.318504533183,478.090680886309,496.855448966888,493.544929656593,457.577631928055,477.970906012477,480.048654132743,455.164379580984,450.040754236456,439.810526007008,469.993402629117,512.615871644995,504.587033408225,475.696638831951,447.766217153755,440.183315878446,451.451954351534
1142.04507677176,1047.50638371609,967.240798305527,963.065424560461,974.614505749761,1065.16946969276,1126.22651701765,1128.98358539564,1097.81379260701,1088.51010046804,1023.62453636773,1004.44221359979,973.381938180326,968.068497910588,1025.3177448711,1014.57808103637,1004.05119554044,930.737605791074,900.05250133111,924.577706209492,942.147408817849,942.187459828508,944.358486086136,972.873110451665,999.291829935244,1030.72614355121,1099.91273845763,1168.86077114317,1166.26139772633,1181.28609578685,1224.61598813762,1296.42933694191,1271.17467006413,1180.92598761946,1150.73862475319,1266.68861884656,1314.99573700908,1294.42450405928,1240.59479860245,1259.66091609811,1311.54514818838,1331.23277853891,1363.87232968012,1426.94835320074,1426.83808306201,1469.80172460884,1406.94844853931,1356.83181733014,1292.55657870339,1210.33870722378,1284.28630702058,1316.28302747825,1215.12991495918,1214.13493555995,1242.76769047151,1238.56030909871,1296.58258916892,1412.58410198146,1535.31495079356,1466.07099890214,1362.07982039862,1276.24472297191,1221.84267731656,1284.49697648494,1396.92325920139,1386.42293657738,1324.12552457983,1238.4984724246,1258.65082144036,1426.63364723969,1502.81115153525,1459.99508374695,1456.91414692932,1420.88383766337,1361.55307097819,1293.64267835391,1322.00911891191,1397.20063013486,1499.95333728496,1643.5461558307,1698.7946390259,1721.33774720742,1753.13028467324,1703.06849075885,1746.82365396608,1742.73901434018,1654.34908685367,1558.36634258359,1480.43581636705,1456.30710725373,1490.083917155,1462.23690596957,1412.77601966967,1443.22414085664,1456.73954349998,1449.47545971069,1364.21620231302,1370.92430603191,1492.25914672138,1440.40246602949,1351.13048590011,1379.94242212863,1486.36919559361,1557.8826971372,1553.73869874715,1590.7309937588,1734.04622173738,1690.26508226407,1551.6195988069,1479.01596599786,1525.98169936594,1633.84989584007,1692.99578427062,1756.25345388658,1836.04631567294,1865.66499554143,1877.84415203034,1855.32854781762,1805.818760865,1721.66469945381,1626.76011571309,1593.17358998208,1547.9118755059,1487.88912993937,1421.29692578534,1338.5236156347,1269.72363508745,1181.24846015974,1160.46385886288,1247.74149930017,1273.57505146282,1211.36408999419,1112.20162346718,1127.37279568452,1188.89513797667,1188.37934197134,1132.20731155694,1058.0463644152,997.121629610312,970.452614887497,940.112243126971,908.009037818611,884.55694946944,865.38784869252,861.406364239982,894.05093482663,901.256455118507,854.339254176808,803.478993862905,739.515182599522,698.271552598582,658.467530483509,619.185854298883,593.964154500169,567.75874771711,557.856942973112,553.329626811492,557.128130517012,582.283951958471,568.601757058771,504.054535165257,461.054886370707,464.502329908616,470.172297701345,443.039709280683,453.451773587283,501.785764639088,459.051666074086,435.707563732623,443.680197679658,460.453297757648,479.117961937662,461.980751324207,453.723605423337,485.875385405665,487.223590060816,481.234274460876,483.77950276227,488.843647726477,481.005233019304,484.441259256311,465.571195312483,437.550080077163,410.869622470915,463.406264803379,526.9855650055,515.570287838314,475.512112132766,451.916215735525,462.99035575657
1176.41459695952,1060.30065467484,1038.60995224763,1059.9648709892,958.116288940224,988.948230559154,1066.5969780523,1162.66880910976,1119.77213218321,1047.60169651979,1053.09177779774,1023.76915157412,974.225955068885,982.944124277255,1083.99623317573,1031.68259043708,938.621326384635,909.688459925822,935.982951144848,915.625005191374,916.175237120462,944.803046537432,963.601905066212,1003.60428511862,1021.40772676111,1031.77820136113,1044.08461458536,1101.1874796739,1131.1297307611,1151.26049342933,1157.65778255269,1217.28952771657,1302.31183984359,1248.90827070159,1148.362151159,1209.00466827845,1327.05089031528,1373.63746814725,1345.36096179782,1276.10049795986,1277.78600765337,1357.5774395085,1430.94962355641,1462.65209473913,1362.62237755669,1347.20130563955,1313.7668884559,1277.16106880428,1264.13345528267,1292.80121864537,1358.05938377348,1329.54655300785,1222.88588703337,1261.74107166942,1330.14969967955,1306.29823587584,1338.73661188523,1429.86325605491,1532.93454851974,1468.99215896585,1382.1692336841,1289.68090427174,1296.72088474651,1380.8300266584,1455.28048664493,1368.28214025718,1275.8843751201,1225.15102941534,1294.19890605841,1428.9226459653,1553.37746237172,1562.89452598458,1533.08163607233,1494.28504300512,1424.13849642829,1345.78773598763,1404.03254743307,1421.67600026893,1508.42401820712,1641.00362286483,1724.6147014692,1729.59141450299,1780.32260445138,1785.04058809125,1813.71287388015,1780.05608600206,1686.0559824203,1581.76843823898,1566.51629860544,1495.64809110482,1417.36785983429,1405.65061917117,1376.2148142644,1359.72796517273,1376.39170235443,1388.78151509193,1327.67559500724,1349.19506400481,1383.25860498339,1361.1052088668,1305.71220196299,1420.35990826749,1482.08225596812,1417.96135779406,1480.76097580994,1611.60900515674,1719.57260733543,1650.11516767139,1524.88490833371,1433.28179523788,1443.87903034776,1493.15885695111,1548.84113698549,1670.41468740249,1737.99647678011,1725.89467188878,1784.06845321698,1814.78531480916,1812.68589144813,1797.16115494027,1754.78494573799,1703.88917694258,1653.77810095992,1566.78925301804,1436.46197084955,1316.23847749797,1231.10816590559,1193.71556135419,1232.52903335781,1269.66260083909,1321.22355433632,1269.43085042917,1187.92218949123,1220.25390514232,1249.11674292419,1188.5280043343,1108.03022931151,1036.71958296729,1002.01416103111,971.242825520366,940.560528150978,908.624516857253,880.548488135534,863.793696745851,847.924335467414,833.451888131582,859.47119169193,846.731940762208,840.696862326994,803.470105573774,797.273908582939,772.953578768405,721.366739908313,685.263310359765,631.44788108062,602.275973516317,564.032332561491,536.970064449474,524.386682814649,514.879479894775,501.335981330518,482.421774312694,469.738349140968,489.393419349151,476.905165622181,468.08306594204,511.230304300979,518.442496846185,470.398265356453,461.349042922205,481.012536193101,456.295807029722,442.453559678068,442.161762674704,468.761922279096,465.894293978959,462.28959892413,486.090570554082,500.642561453603,487.150106384136,476.410557457361,487.632216464115,446.450317343958,407.3726217329,388.548969572262,442.294742596956,503.805028422556,506.817998634732,483.073001340255,446.214749667773
1146.52764261009,1131.47206328905,1105.89453633897,1082.59625051714,1004.01946780448,992.502407897586,1071.85094468407,1180.95395115387,1127.49513538372,1124.54562378374,1127.52679918247,1092.70781024295,1017.30212145852,1023.81247606122,1023.68272093785,1001.94891474154,917.92746951646,933.340861056629,983.453978424204,949.543361485755,909.639944747222,935.151621180477,935.510564647738,946.868685881482,984.64259942561,991.153223405992,995.885675014087,1036.15470893678,1033.98742517066,1056.1463876087,1117.96210594641,1206.15021666739,1275.75462415854,1259.49468118506,1163.73791604317,1175.67804021033,1240.21715269802,1278.53475526436,1373.37417529734,1393.83169455724,1319.93682484494,1364.00597331244,1449.96854922585,1484.23398727765,1381.76945380797,1309.90293455919,1295.42176966322,1279.79879369373,1272.18847345794,1340.42033101776,1399.26041014506,1320.56817240445,1235.73133483058,1272.2355159419,1369.38289470949,1363.21762667566,1393.87193325086,1484.11591597953,1572.84029218648,1511.46634843193,1406.95650205202,1351.84263584728,1373.64652184998,1483.60072357918,1528.23028399444,1450.85592425691,1367.96853806132,1253.2127829153,1288.78067222685,1398.47160883867,1558.10138044483,1644.98897981091,1609.65647630356,1533.14157370535,1419.133202387,1376.29784887342,1480.04291959264,1524.99062834019,1546.3703449539,1619.74091784441,1644.5421377159,1616.92887889,1670.97097952643,1777.91638285913,1871.77284923445,1826.13972342329,1719.59099043122,1674.03727211648,1636.83789057189,1520.59831591408,1474.93854746489,1502.35455699757,1476.13197274802,1398.30755305763,1324.49125625885,1310.4339501292,1288.60925135558,1273.19564388796,1260.98919428923,1238.80599724718,1305.33232620068,1357.17004411219,1314.23130681923,1368.34157226717,1530.2484526048,1658.19258846952,1698.18233569276,1612.26399973444,1566.99435417856,1440.30125328104,1362.21283913354,1373.47551723029,1457.20061939106,1593.80648418646,1589.89850078341,1571.38616677329,1671.62345225938,1717.78395806581,1718.73812654406,1746.41692596858,1771.24990659979,1775.20327213914,1710.73292902417,1592.24319385215,1498.44165332839,1434.7355222235,1315.33840731679,1263.76592312294,1359.1857192956,1377.23741527031,1389.074042916,1365.51995059348,1313.66323349798,1326.23281026357,1275.80418461683,1200.82218633849,1113.65300583706,1064.32886245899,1063.14517268985,1037.53170745443,989.050236305713,937.85216282316,886.423652156283,851.220246101718,827.827709468149,793.124691564039,789.612208541693,795.582136397871,808.374619149008,808.621737659412,805.100834945808,806.855880706273,806.37041065596,745.44424210104,686.699375607247,665.711112391633,612.902483385486,544.990521311926,514.533553017957,520.847760237958,505.28760444897,492.567416921711,474.056523992496,492.10667890056,529.912646731605,508.066212280747,511.745452296426,531.774005493181,529.320478868507,498.439433867039,492.236821447958,460.892357616768,452.064748942756,419.928913651816,438.119261491843,463.874267361414,437.801343768185,419.457260799823,444.783507476786,463.250625966666,430.841173189548,455.180197692481,477.872812599633,442.138039716254,377.300411936125,365.646582754393,392.00437505501,403.657965077918,424.593548508277,461.411381213952
1079.59686710502,1117.57016028781,1045.44222305566,1067.68297194122,1083.09939918834,1056.40513923799,1125.69040540104,1237.07295853097,1241.67100974579,1203.23246466632,1138.34277254386,1127.85906548637,1066.59372311261,1013.94116242654,985.958573127412,964.538712803927,921.371080040995,976.725350590997,999.009245722805,979.614271286894,926.995350597817,929.291853139096,977.499789406196,970.153290321256,990.581527120619,1005.48517045075,1010.78640276776,1032.31859147048,1051.40513059944,1064.00682398232,1116.01482099486,1211.30359958878,1272.38396070302,1202.09844265559,1138.1081200092,1147.85834603562,1256.26493549063,1314.29070771824,1376.90890753658,1443.10957693936,1426.10532527603,1400.57008720253,1436.99706617643,1501.23860078303,1442.30174604697,1352.21799507681,1309.35191632898,1306.40189339613,1293.70231451708,1351.14864626839,1417.76348028316,1366.6810114807,1280.60287466788,1262.05770871728,1329.07446342795,1397.25037683681,1448.58447884007,1528.83288469772,1632.10133971823,1562.67622390625,1476.1425255747,1492.63162377106,1490.60981677789,1546.85333626871,1525.92752386941,1459.91226263904,1376.31840679539,1273.97305727159,1287.84158622521,1373.10540213279,1487.52848194717,1645.15073595241,1666.80246621693,1540.47851202015,1453.80608302628,1411.29344057307,1427.56196360297,1484.21288577378,1492.03517935888,1528.92289422191,1551.30031346142,1571.05051925152,1640.69987502192,1744.87897974717,1852.37924082405,1867.2140834301,1790.11881615019,1722.33957131809,1602.53400609169,1504.20132178613,1557.48987503389,1590.55680202905,1525.35251160428,1413.88260686126,1359.44252282187,1416.22109146471,1376.81076502957,1354.55857018196,1306.11319120054,1254.11248361598,1226.03929636488,1250.37578435762,1344.33943102109,1438.24923439411,1545.77252546633,1644.37993282975,1591.81932440356,1503.04183410681,1543.55793611441,1486.45881092751,1353.9362905995,1306.17210867153,1373.80536142115,1441.03413739717,1420.6705102675,1501.28367741661,1646.55089918898,1622.50705870887,1602.22497770417,1654.76128957188,1685.36253422883,1734.15649083112,1747.04673021789,1675.52330746582,1586.63874028544,1495.52523485797,1366.95352219361,1333.0687665814,1451.78723428821,1511.1436200596,1493.07442606398,1464.8973339801,1439.70205925832,1395.79194328712,1291.0182401676,1192.6635979562,1120.63870654046,1163.48014298657,1157.69431382941,1086.57567942727,1010.00449554294,957.825637696834,922.539677582677,928.340556468977,890.401206988387,822.141586856046,790.574116795772,750.746548620581,742.348111275858,766.316825817733,759.239863731111,767.85439029701,778.442778994283,750.241657411696,690.62105637108,640.896518959531,605.798305871046,547.676667569949,548.461244091051,540.5414835372,531.554072541844,528.974596353357,497.38922582627,501.118903402874,513.524910944406,486.264092145843,500.929557512894,503.517393181703,533.906366556602,538.019761695303,518.419520987253,507.509146083949,445.2488827586,413.735646656633,415.029539349563,428.934109985944,433.148559193878,422.219498850777,393.055758209596,392.116499398189,362.675095491562,359.853334385533,411.579932725951,427.585213452522,424.370636836379,377.517974013246,323.308018210871,318.124480644559,345.448165324346,369.299521832474
1004.87414199401,1030.29317193928,984.896860229578,1010.39504394466,1018.65043100649,1008.14593203901,1081.1050081163,1211.90781786907,1258.49740018309,1211.92144014313,1135.82417306934,1089.86863543846,1055.49065151428,1002.38807228443,982.567705414652,961.305957368109,925.04495944169,981.834476431854,1065.33994454076,1045.98987426339,993.876555504002,930.346183424616,965.002229944478,1024.39581744552,1053.0238798457,1082.93006014996,1075.29929962743,1094.09699574666,1129.2600505424,1133.33189989797,1149.23772787027,1201.62106648464,1248.54392514155,1180.7694088955,1121.31566757749,1195.59566434474,1263.27571146496,1345.48308338503,1364.39250125726,1358.91837544889,1421.71556121794,1476.57494876522,1508.52742250883,1550.70590172074,1462.02840519558,1375.2563605858,1331.29326631383,1339.90859235217,1315.36535812462,1354.10332903533,1432.10935469181,1415.41675179699,1309.95017179516,1298.04739334456,1377.31183081116,1388.99549441082,1476.5600463688,1594.18943990149,1682.71620669057,1630.78438439176,1601.80581104054,1642.1475405459,1639.49384244576,1600.2501577342,1477.91760014791,1365.95945555208,1315.91620688613,1339.65286625086,1317.53288284671,1330.30055692525,1431.10423872015,1582.78013110153,1666.46860458949,1584.76808031876,1547.88539154466,1500.16983974801,1484.56089862887,1496.88292910509,1494.43385750356,1516.46101833119,1605.94415845238,1654.75348615418,1693.89323548256,1776.96089887456,1852.71391734444,1806.00735977529,1697.87053058045,1622.15723289593,1551.9214493717,1566.8513266762,1627.12686173651,1556.50180167973,1448.42915666729,1381.19043774444,1430.40295832522,1497.23524482855,1475.41512755595,1471.63198502018,1420.47394269653,1350.52407773154,1233.68434253448,1217.31400845842,1343.60198608411,1436.30874554551,1527.97177743385,1566.46104335842,1486.12496783917,1400.5087695164,1476.06439444698,1517.89954693562,1395.54650553445,1289.90542781819,1323.10533847396,1319.49438307141,1349.59602474644,1525.76844822317,1611.93987562556,1485.23501964475,1490.60162866084,1534.98214597196,1563.48075653485,1649.68717508387,1734.05728538321,1743.60968209242,1681.20119679279,1555.39955479834,1479.26541913119,1430.37007155412,1494.27653170787,1581.13727566915,1607.19596457944,1551.51333600897,1500.65856180477,1423.20726669875,1307.02670762415,1205.81551376187,1201.89196403342,1253.97529904663,1213.08369115446,1121.26475727773,1045.43371669686,982.850396312155,968.377420529217,1004.13040540226,957.901725551555,902.967962975978,856.909317774225,796.941527867816,758.769035858333,706.57314128027,705.87211833246,750.400957215362,736.782683450568,723.677483864815,705.334110238406,628.770954897614,592.811818197833,588.531000498493,586.737523778442,567.171914550913,565.796853739812,565.74677206114,518.298748769115,505.382436777095,537.305711576853,508.905432201684,476.836502073948,447.749402911611,479.111054177303,498.043567039643,460.500952607559,503.735877187769,499.863291584633,416.306356532838,377.497656450526,393.954099702415,380.460959107611,378.697421099888,394.386799646791,369.550442276395,334.439727549945,344.448762948039,334.235489094386,360.176473815379,384.922182896433,345.882312269326,330.397243096793,331.485865320819,315.490542111261,312.686877247729
931.940651805668,924.101978807351,916.752846648346,958.424414391505,985.484026459948,1040.88109338177,1094.90649321908,1199.31533950242,1148.596440097,1112.7059835267,1123.71295290905,1039.45537268785,995.871387945495,985.868141371205,947.05877459093,923.398992326108,951.044936638611,975.909035725937,1080.76804798206,1069.41426009366,1006.37181071776,934.870842080766,941.780094494321,1021.16253745495,1070.71995331543,1093.22621366889,1123.8232466792,1147.88192726917,1185.08043059575,1210.49788450007,1242.65964619315,1272.22581663985,1241.87661918031,1140.05870106618,1146.35755012563,1245.54318276403,1253.28147368079,1227.13503693525,1242.66885792345,1258.39633053471,1311.33972114697,1401.405399199,1500.61669508442,1591.62708356544,1547.52399243756,1457.25733517907,1374.96070982096,1422.14931549274,1352.59259038518,1406.04340780489,1416.05583308228,1340.26948455443,1294.12483084428,1320.27534431774,1433.94168480924,1479.22898014441,1513.81432927312,1632.02854524911,1710.56143749575,1714.14332064306,1724.45258309996,1753.60112999982,1682.13220097538,1563.83468966071,1451.78789329133,1387.13266812396,1373.61810461971,1373.83317540677,1435.52538624785,1373.66959137471,1455.15702734447,1615.99848654547,1727.74665986549,1712.05358525749,1628.6856447988,1626.07446313706,1631.80318806137,1605.33271392104,1581.11142549492,1617.18335971109,1726.36138554739,1767.86459770876,1781.03447359121,1833.04274140131,1860.92821456464,1764.60522386884,1663.90057410427,1632.20042400167,1614.98793275878,1639.70773988879,1638.65727809896,1534.59493870243,1490.60317602916,1474.07653172095,1498.00065508934,1585.63318424271,1592.90353691704,1561.48352994973,1491.65799755585,1402.52919780319,1293.52673635928,1191.70757820219,1234.86820661915,1333.84707559457,1457.1458758834,1447.62550151107,1382.53617585475,1320.74488572538,1389.06629255428,1513.94808022594,1451.85562189831,1358.65622776621,1261.24477009471,1247.29616125714,1371.20037138599,1522.62706755631,1513.16361084769,1384.97711912961,1399.17885931992,1402.79907027201,1477.86009583643,1625.47494285787,1680.83591648646,1690.03625108192,1701.55096979128,1652.70813845816,1573.45236643389,1505.44007121126,1527.19899378696,1618.4359455063,1691.28659736524,1657.60831383884,1544.30415411137,1433.77055343286,1322.07644502917,1300.15552716003,1358.1545237075,1393.05448808533,1344.81752602319,1232.20828990191,1104.98294868252,1030.52187289473,1022.80996965226,1051.89420083865,1015.95497140124,987.947510420124,923.884289589877,857.0413496969,792.847802480921,729.646277816155,668.522554999538,682.560239788034,670.197678240505,640.773515500483,678.69309078308,669.243921297878,672.127106765786,673.243355267407,657.296874508928,625.257932833244,597.634586953292,563.003417810201,542.675793256589,523.567528055274,555.830560461791,586.391904356312,533.108070668143,486.425281119733,437.483607558361,467.433981997743,446.529709595385,436.163476023499,452.218298439215,463.418947002283,401.658221690157,358.859970850523,347.65682368171,356.847062563092,362.705426677191,338.204660037122,340.514689707482,368.42756735739,349.254410674472,333.409283777468,332.039141639302,343.201916313364,371.211788822801,406.386314124927,350.116119839571,349.972294033754
870.629892908537,871.563394353767,932.838224234088,1017.68180607067,1023.31754044176,1030.16425442945,1153.98421231265,1151.22915811443,1106.68549556186,1048.6666990968,1044.44653757934,1035.87616203304,1010.92255830623,962.190043725957,937.71953253724,953.007652347547,987.566446662933,1020.7808802301,1098.36523758344,1063.24441469461,1000.90943332633,973.608701270336,931.155845680013,970.370216318558,1010.47940598831,1022.53217461461,1050.33394527862,1087.7904434516,1128.26078072162,1169.86900995276,1252.91404682561,1300.41611727376,1234.69658063644,1186.24086014316,1117.38299916046,1149.46507537863,1152.7957241628,1164.76199561494,1187.2134102697,1193.64965866456,1236.90148752011,1324.31180912008,1448.24276901675,1597.49034866222,1604.08117798877,1465.69355185826,1470.55679442147,1483.61514956289,1389.28084518342,1446.86828085763,1448.04393546346,1337.63095674702,1348.5748807978,1355.57532637364,1421.96577645429,1559.74216525813,1631.73067601184,1631.10831142663,1625.0537344613,1648.92969844922,1713.69143223947,1725.8700953602,1605.4428814845,1496.52663610019,1440.68516231925,1484.70061537229,1406.6859784118,1443.24978432129,1514.81175946162,1436.58451058404,1457.67971591613,1569.182708683,1722.67717250524,1797.66128046254,1740.7288848656,1757.70441521943,1739.00522916158,1676.71090516773,1675.17234099737,1732.37434907333,1834.27566062818,1872.10683979314,1867.52717253951,1897.38827500761,1865.51517343721,1812.48256137888,1780.48479924931,1751.63991420953,1723.92453339246,1721.89662904931,1697.18602145656,1633.85720941902,1596.14513567337,1589.00669908292,1601.69242071252,1618.97481136025,1577.17078747216,1510.26207618123,1430.93580189605,1355.16351860279,1268.11455603007,1178.48976677323,1210.63290886082,1322.68578147894,1408.81126168553,1377.05769697185,1280.95410717462,1220.61656454746,1310.0744886012,1442.127045829,1484.0666717705,1394.82793277643,1273.89726057958,1234.63091592828,1376.84398211808,1505.33136161014,1466.56675280599,1339.58631654879,1315.7481918481,1423.33590302935,1531.2853197353,1553.57106667947,1546.27870243479,1576.84482522225,1633.8037684203,1689.79918793873,1653.29916851072,1596.01822543629,1609.53916378915,1698.58354832624,1805.9043339026,1768.29171168381,1620.68814787625,1483.61604733004,1436.5896443794,1452.0262717665,1496.58196926172,1453.55617772433,1355.19917654753,1250.60406418271,1218.33342370838,1155.03644968834,1108.34440743656,1102.07482221824,1070.26840170019,1018.07372119391,940.461835973244,862.24225624264,805.387180858455,733.963902670496,678.587281702338,629.481719512806,616.662849345148,641.515462431919,690.224688825504,675.247493883129,658.770953466778,661.863974510733,677.816142066991,650.453776517676,640.757212375152,615.584342188148,576.565503189148,529.994323995445,544.555435214149,602.67740463556,588.795462400804,561.141124089885,487.348571024122,450.983801767082,466.452587882408,407.01673416385,365.41584614357,394.358364083234,393.798562937575,361.696374480787,376.761860729591,347.973109172128,357.272808509815,371.384048080798,379.48941773456,371.813512778174,381.012624707395,360.529907461501,358.18171411367,401.562506073408,422.301348666337,443.081446597553,393.480856956095,400.361797096951
912.511288605393,919.713792127383,983.355999438929,1070.01713269515,1114.25187325858,1082.4684911986,1173.21394710751,1149.43406871767,1041.52186877543,1022.28466378345,999.580466176354,983.04625386022,1013.26840664384,991.777900511753,957.375511277433,1004.18730318524,1036.58972275733,1037.68820650018,1094.74123732363,1083.25788080657,1081.74850642746,1057.0745532723,977.421662041875,929.426836488179,965.453606426291,1031.74848499989,1046.59920958451,1066.78626883037,1105.99160047014,1159.6266416897,1240.31054753639,1314.80580091389,1317.22490531663,1237.36233394126,1127.67761230054,1086.37664327663,1155.55057438668,1251.5599478398,1306.68775360735,1305.76267413315,1314.51595412155,1372.65475116351,1467.11448001098,1608.80991096832,1663.67397185925,1569.64393290772,1608.76866228498,1570.097230117,1512.4653999343,1543.02381686754,1514.53257948674,1409.4523490538,1419.37083359109,1456.49998805635,1502.65760813373,1620.95699960697,1635.15032606679,1592.93963283282,1631.49718299335,1677.6889258732,1701.54726549765,1690.4254640635,1590.31430948835,1529.63721252885,1536.23148943125,1497.68751498046,1427.15823384888,1491.23436837413,1588.34996153649,1536.37734328048,1560.09236690412,1637.51499423933,1745.33176803743,1853.78756166856,1869.88129362799,1858.54617915269,1811.30375678315,1780.37045368112,1789.48534281818,1832.55640573331,1903.86846254159,1863.34811699129,1862.59130508313,1938.47067484577,1881.65418162749,1848.08858833856,1896.71479702596,1886.79885927376,1838.5204823271,1829.21171054206,1807.72285459812,1729.05409024559,1707.65730596481,1712.27050281914,1671.40128747749,1560.98016504882,1452.78778824349,1388.96060237806,1329.30490374681,1257.70770992493,1227.45380173573,1194.12001060117,1170.21953628675,1232.8517987435,1283.10216184802,1281.26773612165,1230.51990728704,1173.61077508875,1296.55161853538,1413.50978503712,1469.87332762104,1393.86663627743,1284.59008347323,1199.85369531137,1284.61546364831,1407.97147630392,1361.58643987936,1269.02009828167,1358.75484370527,1493.10465923108,1526.90479672922,1424.48523128208,1407.78607864661,1508.02207741149,1570.12501953105,1641.34494166691,1711.19118525039,1699.41428277631,1727.48721362243,1787.5049894499,1891.45924478363,1876.6730033362,1712.71357483942,1627.51803140762,1630.54069766775,1613.68310839262,1604.52188439957,1514.50760729481,1391.84952396616,1326.38417447522,1326.92394504368,1282.20374632444,1228.17907889186,1155.35541372256,1087.6795250795,1031.53308548659,978.254844457324,914.179347722464,842.695688425856,788.221925633018,723.517771825507,649.743647049281,598.670330349577,627.87082204781,659.777183721157,692.504619377009,680.386123705257,645.121022173833,640.648781565983,632.000323598556,607.449192022118,590.743512053401,553.343200976492,554.981235550365,580.190466981884,599.066153856448,575.370564169901,506.361784308581,429.587895327464,401.051614128769,401.024452453563,383.854077117901,369.902442015498,396.112507604429,402.52529218644,434.751783072334,416.774687741635,360.409752159067,389.643486976403,437.223016946983,410.009950842402,392.344888072343,394.748812564157,367.757855972926,353.801755640414,385.243187652618,439.083354768148,437.511030903718,438.287835642187,440.701016997261
952.724634244694,909.002263092854,973.777102512199,1057.71799477148,1153.70950199306,1192.00810640279,1234.14721829275,1193.06600525607,1076.80830296437,1051.25055162569,1034.83554066957,996.215740494654,973.393083374615,967.496936349505,973.809876473714,986.830145087582,1049.28994386669,1080.78352098704,1109.39741072225,1176.99441885556,1176.33870210371,1119.22253827203,1035.58734384063,980.474210295001,963.049209316264,1002.19812328297,1067.9669186897,1110.464285622,1173.68602552546,1229.16120241013,1298.3714249415,1330.83321677954,1289.75744340399,1220.16384388465,1118.08228824053,1080.22353732672,1175.99193261831,1260.25355421969,1309.78851628158,1368.0140072278,1420.61425008074,1483.28718068914,1560.3712890771,1630.04781881279,1703.02744241896,1723.99613711182,1722.00215716294,1652.76760590606,1622.17222536633,1608.09075793227,1574.27707391683,1554.54386290228,1583.99172155377,1623.07427396988,1605.82505898088,1594.37156108242,1570.487132049,1593.26800492973,1633.87038049043,1670.72242459632,1755.32246048289,1746.17727484549,1664.89438083049,1632.53450062504,1579.42466388457,1508.36782404267,1500.13601624819,1505.20178039611,1628.04229506554,1662.52025730174,1686.78656097433,1749.84976984663,1781.84436582698,1798.88278868621,1827.25548447941,1814.78927248096,1798.62046721239,1772.37615393263,1783.98221691972,1769.34194712818,1785.55373397215,1796.98303899723,1878.78529703609,1954.38348583289,1854.34039925362,1839.06924071912,1919.75839853251,1895.92683009142,1888.76273693006,1944.58321735859,1913.53352381516,1851.55195329116,1838.74334527936,1766.79166105772,1671.73787698466,1610.0340444943,1505.49290940674,1424.82133733979,1373.01142343157,1358.00921707986,1345.37941191792,1280.06214880966,1166.26520821549,1153.21755685515,1153.45443977771,1118.3015549333,1117.75409127489,1142.43677606435,1240.84695256078,1309.25759028898,1398.80051612788,1386.07908922767,1282.78647910114,1183.42416292026,1187.58601842797,1332.00329069015,1272.22509576431,1236.54571195099,1381.69792623598,1491.74828952306,1487.32128436685,1365.37168857732,1372.05792753349,1472.36820536298,1469.77341277362,1564.98262319887,1674.63319320002,1727.06902179593,1777.61485576941,1848.0919432967,1941.61908687753,1949.23587604527,1827.50808395298,1812.68866474855,1829.16180590777,1810.52692666721,1775.60173903842,1662.5137531125,1538.63189627055,1470.34217519254,1459.15426213797,1437.02700210597,1320.4324001501,1194.12448370784,1134.67716851298,1082.18635967364,1013.97242757552,949.780670374888,892.592501579072,843.868249666949,773.172588134433,677.645788652569,614.684363526331,605.117905720882,611.312000976867,657.909325839052,688.07343998957,659.131124390898,628.385833386985,624.114715010372,600.935184186216,566.048898394121,559.170737534263,602.469989361344,620.539006786233,603.668997080679,535.775634147671,447.329034387849,386.09226938002,410.995679563835,393.534417109753,384.300903361913,404.230210166063,444.084196778676,462.034610092994,449.302610898594,407.368465175674,404.473230247647,395.151713499567,428.434564825279,423.565045691645,429.361258075465,440.379395094613,407.925562181894,381.447541810283,373.981378858487,408.062249208745,446.352916479915,450.280848196361,436.405649917733
1013.57211471037,931.950051385583,950.869842960015,1032.6020001495,1135.55533612356,1248.72981003791,1281.87983793526,1205.71941259955,1092.22236821182,1027.1867254701,1002.43078664809,1009.76086971768,1053.32356815182,1005.6883958093,1037.9791880686,1053.7703894553,1017.85114956801,1110.22258440606,1185.03775597664,1240.93850122372,1241.98101872735,1173.57124203642,1125.71407433147,1097.63958223422,1024.66885409873,963.159169547494,1008.06690055874,1092.20464970625,1172.87231639111,1240.4287088362,1321.3379958025,1323.1513232486,1227.19771527734,1151.41134133574,1082.12463653854,1073.36926782325,1144.60320703549,1182.76713024756,1228.49165638001,1282.75319749709,1367.28596408441,1465.52117110677,1565.30577015796,1623.26788681254,1643.46391033218,1722.22486743626,1708.7907188373,1624.99742750545,1565.52244606316,1559.25492286259,1533.07195516972,1587.66382989752,1612.38689606497,1660.48402651661,1642.83997419531,1557.27949103285,1557.8627872129,1622.68195467266,1706.0176343387,1724.47307128817,1780.2724066082,1775.93771868509,1752.13912848166,1721.59109129682,1639.38887990424,1627.55612067134,1614.1862413642,1612.14985530464,1690.59414486487,1747.84078121339,1758.07565729484,1735.08965200049,1714.93156055078,1706.1405699401,1738.53174453499,1737.6368052773,1762.66597246952,1730.24055384765,1697.50448594559,1751.03832985889,1801.40384565488,1886.26148185466,1908.77406334655,1884.67530659641,1815.18831565205,1815.04033804704,1858.18384466306,1827.77735468523,1897.36169271655,1887.84623327374,1792.39686188265,1817.63764341901,1847.67886710793,1719.77902801312,1567.79121538554,1538.84208520216,1536.3825531081,1443.48017987516,1389.11205516103,1377.66141052231,1297.26415879165,1196.16295446741,1159.72703704801,1155.98029574712,1149.87200279033,1162.44751204002,1118.74939575327,1086.03738791658,1108.28037996286,1194.00631374046,1301.02913857099,1342.97055910125,1272.27001791825,1167.51322287687,1117.37664858356,1224.17997516841,1194.51685017428,1229.83528543938,1373.45039800301,1362.08138768948,1378.1798794498,1301.17137063914,1296.56876957364,1347.43849994753,1392.11383394443,1476.99338370871,1569.30384457811,1665.20167844057,1762.80797735548,1846.28949100458,1953.23656318275,2014.8878043965,1968.39784500373,1931.44461556344,1877.33240738356,1858.53030006776,1861.40790138884,1806.1192477325,1719.97171052671,1643.27336670292,1615.51402964902,1522.62509771553,1392.23590058596,1273.52027877501,1200.5001375532,1141.74340896444,1069.46588514274,999.023749172568,917.106432576496,835.195094263952,758.752790651357,708.149045441721,638.605840980323,579.282836661359,604.137067698578,675.061724383678,676.936484356308,656.046943353617,650.148994301259,636.845064441737,610.961740841824,599.433322736607,604.037090285708,623.067846114191,601.413473810404,556.853065032257,483.023268017972,408.339196782313,391.510852125266,440.409126027078,466.328855244574,468.799976930885,485.410929765224,470.319109288539,434.579390327137,400.178890726051,415.394869608734,468.134485899517,432.785868888114,457.287636598975,450.323147066681,445.604985082385,458.745454499432,487.917771565114,460.698417114151,396.719552426069,392.04918085775,413.793814091698,418.765534788585,425.87652018792
1103.28262077352,988.11075536389,963.477099612199,1047.58952771434,1131.07503752775,1222.07261114005,1170.73231194437,1101.70555507825,1057.05826412115,1019.296520484,1064.76395725805,1034.1055272848,1076.95318653207,1031.15912942093,1101.33355867579,1136.15197569103,1077.235725545,1135.7769140924,1227.85607838787,1297.00840108487,1275.14322458383,1216.60221177823,1185.80280669074,1120.07740953182,1035.65145692987,973.921304139561,982.803279980376,1058.36272280885,1110.9913865319,1194.73648142511,1265.23077517946,1266.81004086402,1224.10463144283,1127.36077126397,1040.18865906363,1053.65360600073,1103.38311205672,1163.14896277378,1211.4386216894,1253.33056365063,1335.22857161239,1419.03527473972,1507.98513354726,1550.80873176237,1610.24642226295,1623.41180250394,1649.65535191568,1652.23577577749,1579.67809605136,1509.39930286826,1514.29668401015,1579.97691378363,1552.7497849121,1614.75590842149,1626.7719188752,1553.69405062992,1559.49430199015,1615.56684717702,1664.5060047824,1674.43506413708,1724.95152627753,1722.2387551145,1747.91466279864,1793.61819599329,1762.39614777787,1730.9095068987,1711.515656234,1730.56167422645,1744.07608021535,1733.59602083101,1687.3078556228,1680.28472520659,1666.42205035861,1728.52525096669,1732.22460464827,1685.06475541572,1736.53767950225,1711.92965315861,1681.12217475498,1769.72281073503,1831.38802191197,1889.42976124903,1852.58876408044,1783.61049335636,1752.84622139091,1768.86409170638,1774.07444948651,1835.73381495008,1928.63317164595,1797.59090030534,1642.04654695589,1614.92781883667,1743.87747366157,1675.03512580029,1515.67820462942,1403.02173230204,1397.00992018029,1365.64641395092,1250.95108416974,1216.14098169389,1189.61632465717,1225.23878640169,1285.33068278161,1255.618475633,1266.36173618474,1274.32508776131,1212.49007088467,1142.6955776468,1074.77593979227,1086.71881224593,1164.98503134008,1260.69768473291,1291.38110474539,1193.82214396769,1098.51162416927,1099.95028869024,1125.21047256176,1231.59900498985,1262.30962877134,1206.55462401349,1233.02795435108,1221.50107291537,1242.72527061046,1295.75143446515,1352.05508500054,1447.0484522856,1565.96914393944,1654.23999176615,1741.88319963465,1837.86329230174,1891.50804418871,1894.05616928909,1853.49948761611,1790.92241478848,1713.34913593669,1713.45054088051,1738.25202425612,1698.61068799693,1637.32523993618,1626.75835450198,1599.02134981151,1519.91947364471,1417.608834146,1333.73688864647,1260.84127438124,1204.48052651008,1117.87014000489,1028.66106879865,952.238682153391,876.199990909977,799.236006512006,717.078916297056,652.140216127548,561.900742435137,587.292076336087,678.770065319958,703.490952752619,692.651499759949,660.297545893857,642.233129630607,625.786985104385,625.745299886191,628.265726359924,592.498535346148,536.216461715746,462.260846552794,418.914118403767,410.909219076857,426.388082101533,472.410605512542,547.15277752799,537.150314296865,507.383388782669,494.357241547233,496.152443525537,424.46247139026,461.256088971323,469.866708306885,465.730729078352,508.1413790831,522.000360405934,504.713260048358,503.336791706496,516.870859240325,496.024944950225,443.060757640958,393.480651393413,389.694147002276,396.328309424348,403.917496713494
1185.19843718745,1056.9841494597,991.579639142441,1063.92088457954,1162.95826271274,1244.8001426427,1162.72822371951,1088.33124203092,1108.0709638278,1075.62100887543,1101.02085671846,1054.55392774925,1079.44029918398,1062.1783073703,1124.69933582582,1192.1744319943,1146.00617445298,1209.59502871499,1294.09230859531,1307.92768533816,1240.96692940467,1162.16839002301,1116.23200295815,1060.33423813778,1017.5485291201,1028.04300151196,989.020724611058,992.981314879675,1074.55481044871,1161.41074446128,1200.18184858739,1185.28829100019,1150.43684504136,1082.22655980402,1046.27781437145,1087.86568390053,1122.36693323929,1213.82589255757,1283.97908570828,1318.66662687744,1374.35336861341,1430.19069842704,1496.93838129375,1571.9097883405,1616.10063122077,1572.64484971717,1542.56891412815,1596.15721975435,1547.68921111478,1485.15430841346,1469.26167362606,1495.1908115425,1502.96620648216,1548.5252467569,1580.18723715448,1537.48865022658,1571.90179056546,1624.33605987548,1622.94651582161,1602.38828863734,1648.84864080073,1690.21395348709,1725.06119624404,1753.68172174515,1726.51338108845,1698.25991888774,1679.41430288388,1707.34983638143,1674.00127769287,1724.05487443211,1675.06410718859,1623.95930269579,1668.17931681508,1751.79834301724,1786.96247276812,1707.17759301215,1658.86104536047,1654.65726116959,1689.74393654686,1699.30007802431,1730.4953167145,1808.3362945129,1838.02443530658,1787.96314008083,1732.0012879763,1789.83761633686,1805.52906936154,1851.9221054651,1878.78579806407,1728.03370970828,1585.63961437764,1491.67319164016,1573.15108064592,1612.42029218963,1550.95510167775,1444.72666713983,1321.94991196975,1256.14839825678,1254.27831681449,1283.60284837924,1313.75716931658,1387.62017783913,1406.1467468128,1335.30458946657,1356.45676560506,1337.22051661998,1267.72510542022,1192.85202360262,1150.63935906357,1088.20785600475,1062.16452813191,1146.14846493885,1207.53330857588,1222.04462992073,1130.36167784682,1052.53488548659,1088.4366013481,1124.87600796523,1137.43949958686,1175.47347033662,1212.85306751674,1264.98052500876,1319.76435350344,1350.68942188071,1426.98786617258,1517.85506031662,1601.53390835511,1673.90916125001,1784.98145900831,1862.93142562354,1823.87953178771,1766.68998599221,1708.82116941101,1643.7707946129,1594.46584815795,1598.63954875416,1576.47980577755,1531.45231057967,1448.59190597223,1480.19297548942,1449.94336991114,1403.82005991305,1321.48763281411,1222.38585732262,1210.39741922624,1170.9763951989,1089.69258685714,998.495522585506,938.527073249926,849.418164805465,751.417698537339,650.732572171414,573.428055142802,539.105312131477,567.278679045416,574.851207379655,582.386972359383,644.187806491408,675.946926032119,644.894343806141,626.006509180188,632.658038780528,614.19135373364,543.514599182037,477.991178378637,412.320095007372,451.853368919806,499.419931852845,463.754494565035,524.446987104467,546.862639295788,551.097800473136,539.908657759267,550.741241786437,478.765673606483,427.202260564417,455.647604047951,502.605096197324,503.454242724263,521.422176765251,534.015105840841,539.601572209281,518.442812293506,498.371152367927,496.241414276184,449.767402186194,399.161329982425,377.608940963949,372.850827660953,374.029350714202
1190.54097475082,1135.62083677125,1061.80032179885,1089.30576462177,1178.40254234791,1284.44633208572,1260.15899784794,1232.00643287452,1232.7805191756,1165.90833818364,1157.58280192869,1144.24192292542,1103.09107358578,1101.82772820445,1143.60514114378,1237.09022144542,1263.81791462954,1287.45729467428,1319.54942605417,1272.62308137122,1206.63309837356,1142.11067145714,1067.39499580005,1023.22392818098,1065.73919259639,1095.39323693444,1028.48423402626,985.847261890854,1009.25571934507,1071.75906899961,1106.80618360932,1093.37729180917,1044.30859170151,1036.60348789135,1103.22323522012,1160.42728333427,1134.07537772323,1190.11086339394,1276.19113086781,1327.33045861138,1384.43109210979,1450.9245207235,1499.14267417154,1528.66020867684,1575.87886571349,1614.34428579275,1529.69359497744,1508.98869177387,1480.03016029086,1439.72972429234,1495.81610758163,1557.98812135046,1549.00968173664,1519.91922628148,1528.11266215278,1517.20091793645,1541.22110556525,1580.80070200024,1586.65858083148,1602.22471975496,1655.93371164495,1664.40918572587,1702.86641489973,1749.76726422759,1708.54093960961,1664.99068977298,1639.8637810154,1635.00781687255,1640.49966919015,1696.32416262613,1678.9836889324,1615.8226811581,1669.25784785629,1740.27013379647,1749.23613271169,1710.71532655088,1674.78438717551,1632.58170580191,1663.14283654839,1697.84540347147,1772.60550731069,1807.25543535277,1772.22433593088,1738.64118140631,1724.07756355079,1807.61352747823,1802.5324454351,1799.12661868616,1827.81862826185,1751.59537361974,1631.65102448295,1498.75163149354,1421.4567145694,1419.84536864082,1465.96208747224,1448.56902630017,1322.81799829079,1285.23228893702,1378.85301181916,1375.28538271082,1419.38453119562,1529.60991770119,1512.9250387473,1441.0688521172,1431.19241272088,1357.42170676821,1303.2324417361,1256.85956068921,1241.29219858248,1157.65524993216,1083.20551170122,1034.73321288971,1035.11223128814,1096.97667848906,1118.49815829605,1030.37081955489,1053.54741421363,1126.41218205835,1200.28748408864,1270.74244563028,1323.02483188662,1385.68343239775,1428.91708876753,1472.15914217491,1543.54922388569,1611.28040855968,1705.95834476565,1765.72971395163,1787.1991735394,1799.19537197786,1807.02178169798,1755.11844988148,1667.365485697,1566.77258618615,1513.16472163436,1465.7459512417,1419.19514649359,1368.19066766757,1308.75637458738,1314.06345086626,1326.70274746005,1273.0745448928,1179.0081311821,1078.09967059766,1036.45095561973,985.104539986365,928.27909274101,817.457526287372,745.892341621178,643.015299963999,606.440214926055,567.340930513992,535.689212190239,514.178214386819,504.866827428893,491.042821150158,497.504950891369,553.552451649029,561.795888519655,510.427367601076,503.87011826343,590.068122486901,613.47271364839,551.270532828316,464.451612749767,414.187668255471,519.349060390664,538.138857383021,488.62376407045,554.278131355095,569.728634704568,578.759658697891,539.350965001942,472.375604102281,442.213886015934,494.158071797477,512.014684189108,536.377557620728,528.141864599823,523.824249417106,509.863488706529,501.606018838634,483.800873429267,465.139029907616,450.624299559687,461.551419455602,462.34307432802,420.813541010277,407.197006649289,405.796047282905
1110.0485169874,1151.55356646245,1072.33287399608,1089.34719162106,1159.32941124059,1224.10880963544,1303.42393827129,1357.08354499541,1301.24002803016,1216.52552066455,1253.60725601335,1208.94164682899,1159.94740868203,1152.10071951357,1159.70200921907,1264.68760979384,1362.06901364701,1379.98202551105,1285.87882627338,1202.30125290097,1144.40102558074,1091.49949631912,1044.72629955327,1039.53133596456,1098.78822681602,1112.36585872717,1083.8089818695,1058.89619612206,1011.91896842429,1013.37609344549,1017.57958929982,1025.09938254913,1021.14822165418,1068.85443134688,1127.17204436321,1191.00204372238,1196.85176796064,1194.81376022731,1236.47058398016,1288.35301520484,1376.1664671764,1452.98984125508,1464.13671017111,1497.14815222319,1568.61371077559,1605.86578101699,1538.02642818768,1443.76666099023,1428.14337284466,1481.14381053251,1546.69531550097,1623.35538791667,1657.60426330344,1582.66238638553,1620.72936940933,1611.46999612398,1597.60198637548,1596.7927066504,1569.33267723526,1609.78596858212,1632.71644639117,1635.40006043946,1664.01236905176,1711.97099155546,1747.89097577649,1704.41686913308,1663.8458628502,1629.79492933043,1617.94516482184,1639.59632681858,1654.71207705934,1606.3092732805,1653.34675845554,1708.63682956969,1703.92194288679,1641.46669354298,1620.24375118786,1651.08388635729,1742.13102303391,1785.67094479536,1770.63418407635,1752.30991127717,1765.33497908243,1696.32715192355,1744.69350344465,1769.56679687152,1743.2557832113,1793.44581452946,1870.51089219464,1794.31018144783,1660.6154945952,1540.55893332608,1443.40321302492,1365.77813832397,1366.23597465027,1330.75858543268,1274.23562026257,1342.24660967617,1481.46924684477,1503.48617405771,1511.41158793828,1599.78337217815,1626.42261843573,1559.94906269028,1495.85988437673,1421.54855785182,1395.74308065283,1352.36660148923,1328.57997097362,1259.25959958354,1177.2586085628,1092.68484444826,1072.59172450325,1027.84486390634,1006.39443499445,1002.1978503856,1104.81619022829,1189.25622260722,1254.99395134567,1324.49319993391,1401.87594626651,1476.36633153938,1500.47785554451,1483.96657162603,1486.21082600733,1523.54614617796,1659.52797178499,1729.97839332141,1689.62523892135,1665.19426373624,1695.87618727517,1725.7548196343,1666.24847017061,1540.5261086632,1411.94939355366,1342.31498718573,1289.67010016658,1235.09571726527,1177.35848514425,1179.29762381485,1195.579410293,1209.39068408173,1080.92277012023,958.772620168451,845.578698898425,776.331506755418,724.416217464741,611.46165541744,588.352094324459,617.485897017151,639.345550565054,646.093134989564,664.887180752932,618.399305360705,544.15371645388,516.61354333425,487.166126591403,488.900895467979,484.389443319411,468.466926272382,444.122720898111,498.92664399874,533.577008818303,482.640263507574,451.0225948745,442.654618039759,559.141178438436,581.371275033566,539.969695618081,561.911635532349,584.312362417178,516.485043911874,489.565321165222,497.400502051364,469.712765393934,533.766185265928,569.842675291181,544.940494857534,545.052165060591,545.341498831865,535.298447367414,519.611478888046,517.736996856246,491.926222319044,461.131346815604,467.887773098154,476.893732420433,445.118280116247,454.096398015506,409.94779794459
1029.34313210884,1092.26040369758,1030.77864272657,1050.44282767851,1085.56187562304,1136.15151595748,1196.96538319645,1300.68243424459,1342.4390591985,1338.30920272773,1358.77215245668,1320.86943360731,1267.14265110854,1238.10689552071,1232.31241760003,1315.51305447242,1427.18915980516,1399.3871945208,1320.76915884117,1235.05007098034,1147.3900708223,1080.86553830069,1059.3294763734,1097.35947997141,1134.26920691578,1130.74660541369,1126.0908046579,1103.51296816085,1093.70330131266,1096.25007650487,1038.95934524824,1054.8681942961,1079.48917063215,1057.36547173312,1086.35633125975,1129.5750878324,1204.35749486807,1258.02810495792,1305.26972630882,1342.23200965489,1412.38871570905,1495.63849054184,1466.56865401832,1453.48484958516,1510.53331348708,1523.5537570541,1451.94170567113,1412.454593791,1459.98159979869,1494.62564916326,1528.94344075903,1583.99652469659,1682.23954579015,1666.15182614033,1695.42801392722,1755.16505442408,1716.77664170045,1721.6813310562,1647.37755667043,1639.67497814547,1650.39366368985,1684.90565623512,1740.74546270277,1727.81663013217,1727.0111619583,1670.54124133967,1640.96910080054,1620.88761157677,1611.06193392156,1599.42085435787,1602.48412387447,1604.15835257118,1687.59926129242,1735.44976631832,1677.14643866075,1613.88301264975,1625.56747202043,1684.30039314267,1736.75550501168,1762.03075469276,1728.19524385198,1705.30141269504,1737.65247614195,1679.69696904821,1708.00064434413,1722.73974917217,1776.12211457631,1829.4891175371,1841.6294861214,1779.76887313441,1641.81238971439,1553.0811285043,1487.9803006023,1416.75184541523,1327.34665774152,1317.8416633911,1358.58410634315,1369.34491493236,1526.05397008884,1609.58351292927,1620.12267669336,1639.7026778179,1711.19610056111,1639.39455674228,1536.59492511395,1500.38410847306,1487.93667690803,1479.19890456819,1453.59264773729,1344.1791250688,1215.18045842434,1195.60734758403,1182.03075059154,1110.10610200968,1029.14508975311,984.126840056327,1097.53830827282,1192.0435374951,1233.92154645535,1257.19070152349,1346.84523665776,1405.05908231689,1387.21738889013,1343.25362781028,1336.19175546185,1414.50583526795,1525.49721717482,1591.59761774783,1572.86947617395,1539.77785193307,1555.30367102823,1621.09546411,1560.97102214522,1473.19945168393,1359.98887183644,1262.97388761394,1214.55235831407,1146.32699736507,1076.74036991831,1064.11175656339,1114.63595406258,1083.17480917411,894.754302157016,742.16560462851,656.38501606308,631.280894682051,630.267234960289,685.139609954326,736.705465407806,831.642962504484,869.101406078862,812.7932656699,755.711489837969,691.015986462974,668.30724076222,631.65775874485,552.845074159618,514.179871659312,468.279094451823,478.214003334268,473.157963146882,445.831024618846,449.625534091882,443.658447603418,432.510058947818,475.078835882323,592.789680673238,605.442174570549,573.99590463758,595.911633366965,551.186504835836,510.001952230125,524.207092127991,481.815393295119,527.45988907482,583.73212759158,574.954826417563,556.413916492738,531.304782857867,548.532930037394,532.841196503519,511.427635823231,506.768939781713,497.282813228578,464.697498801723,432.859308538917,425.742570535436,413.872625385729,408.154704947413,419.232835832081
956.160244652013,995.737168645884,972.8152177047,999.810751161751,1035.4430021427,1077.23616090248,1135.8646398182,1254.01938280115,1308.85766460398,1254.1488604553,1272.24792539957,1325.20122232055,1311.93740263522,1189.34083326026,1217.69076447709,1322.61870133193,1408.29835673351,1319.6974603384,1252.92017723823,1221.83785652993,1134.54908445626,1089.7128031284,1104.18557671016,1167.80632366756,1191.29196587352,1176.99422608999,1156.92692768338,1148.76555520116,1174.0517716776,1170.09617681959,1086.09507629424,1065.38785870968,1110.17757061935,1085.22715785125,1152.9581617613,1163.27786209861,1175.51812461985,1243.30196134289,1318.91990579608,1393.53989688521,1468.78531077584,1510.7648542461,1493.06965191084,1475.57187650774,1437.44605229099,1423.89235672083,1399.43068186491,1436.11602243451,1494.07296714437,1530.74024283607,1580.64290191982,1598.32847757666,1645.57174974346,1721.25479755344,1764.5401165603,1827.69600353055,1846.27756332217,1809.37397617423,1759.06720229355,1755.85205303888,1720.44303855033,1722.02145849464,1777.86420342299,1801.9253761675,1741.83942677104,1695.92380630153,1683.03330994219,1661.46443360354,1662.09550144247,1631.1405365816,1597.15010135922,1597.77929806604,1643.17714515244,1719.99679488257,1678.79594536777,1597.62167094869,1622.50778853036,1669.30823514518,1717.79582551124,1670.06011007429,1644.91902129918,1722.68762597262,1768.3359274045,1673.7109543521,1713.03160777769,1751.31564732549,1777.45906109436,1755.28179939552,1782.14292016943,1797.97164836726,1683.33309874631,1566.72288046992,1473.94871319368,1385.06344557289,1326.91771165574,1410.51089956571,1478.73559145286,1466.12254775055,1571.29480493497,1703.3065983345,1737.53147542344,1731.08606263703,1740.84029426973,1673.5703274065,1606.53440691775,1590.53311675658,1604.78745719047,1592.99409275552,1484.62324370188,1338.93981206061,1276.42717995428,1330.86266841663,1256.64215465662,1150.91518592527,1072.20563021967,976.622738822214,979.632007785401,1056.44152807311,1146.67985826217,1229.72933637082,1283.21989398408,1293.0841005754,1246.11114363144,1198.52512580732,1253.06630257984,1340.17089722175,1379.5993768889,1483.63999276799,1451.41092972967,1404.30355172119,1432.50911925562,1536.82623791504,1556.66663456637,1466.13948179969,1386.79987188421,1334.89388645439,1283.98694910623,1188.83857521817,1132.04021922886,1051.80907578551,1000.46589908083,885.929247071563,704.884726982456,654.371840006814,713.27145756498,744.040357561978,771.563956952686,801.251597303807,865.656263953239,981.548236163369,1029.6244269325,953.497045651672,852.292349057681,798.382742911044,757.355427107406,673.524401572328,660.265065379972,622.98336855403,529.504517699229,527.196635016508,571.295089496645,520.798595347762,490.766478019184,516.979032350649,545.799474528242,483.059297446092,517.205702259839,600.240871287562,618.545261882374,609.861853520489,535.651848527683,523.443563772229,495.691885937273,517.328317125348,585.624981571875,582.672381948714,555.051894512425,544.561780019854,518.367217103189,508.52787880123,529.171084214826,509.909473201665,496.374466251994,492.969332396331,488.386571934597,481.172375741774,441.161158684854,437.468374060694,450.968776766705,461.811078214254
924.257993853956,974.173713131935,1001.93593673634,1005.63920981345,1056.57972882417,1103.7283706048,1167.53871082019,1268.91193702424,1255.77214719903,1156.21666336673,1121.54722030747,1191.81577447085,1298.57070235004,1186.1433514565,1181.28452364737,1302.82766461449,1379.90260285889,1309.84893354372,1229.90782965031,1186.41182007239,1176.23457488067,1136.72045099149,1140.7904159184,1183.50389923496,1252.57523788718,1230.85646554908,1209.876067731,1218.28299524076,1255.35462425854,1240.88478290177,1140.59913347596,1090.46076978111,1143.8967707975,1109.72981519768,1165.31487524693,1240.83586110679,1251.14326872494,1273.34875108177,1353.52465594989,1424.20806372237,1496.06789902232,1561.42387215383,1538.38064600666,1495.16759854328,1435.34398324246,1412.40351740541,1466.24037243678,1473.98885629926,1512.00035688391,1550.4660343337,1578.48079921522,1643.21317291466,1673.7626044415,1706.83899851295,1774.76314087363,1809.80681334497,1883.52729801412,1897.06430209617,1876.53449643028,1877.10291982261,1826.71397192347,1783.32787399415,1822.20351726624,1856.5403237206,1744.43854232498,1678.96371521536,1633.16307104339,1610.69255893924,1620.69223814234,1648.67789629156,1607.78045019303,1558.56803947984,1622.56170364938,1695.9577747376,1673.59967937912,1636.40539769903,1591.42033344853,1634.35019677654,1665.50357747277,1622.76076569944,1635.60333611799,1716.0002316072,1745.20917730639,1671.49110502314,1702.19456031004,1692.94792264726,1714.53634699443,1743.95628535397,1809.06487847176,1811.18119592762,1719.99416121406,1611.02790205852,1512.14656939233,1402.02142607512,1368.41180489282,1467.27736843789,1560.8343917574,1596.26567386635,1645.12593190926,1763.122650198,1830.71022822011,1826.700080134,1772.89822963096,1699.60284084921,1661.75503941182,1688.94799718047,1705.5741453763,1587.20344073442,1457.34596766519,1406.79389651066,1420.15282754069,1443.73551578787,1330.56719702192,1239.9160595732,1128.85805968636,1045.06680604686,1013.75696247046,958.890768867471,1064.70263041828,1200.02135940159,1194.78438543894,1186.9674572436,1138.22297371322,1091.19683681672,1169.65874283381,1224.40996742698,1330.82416718818,1365.38095113246,1287.82282706059,1247.57885348136,1350.24412833816,1467.97105810997,1563.70090340605,1534.00612968482,1471.00443924352,1468.26116282764,1405.64219024451,1316.04778421156,1231.80784990757,1098.60183972536,918.078853899741,770.116175516112,667.81370605124,766.591540960201,834.219754591609,858.894931891776,884.787444013656,921.682471123202,995.56688893486,1112.11223837449,1114.21258919146,1011.10487661789,948.589511331836,900.588566719215,836.220278506838,759.93434150759,721.073640175174,703.08764699922,632.87411676764,564.126656585183,622.692385059943,582.615516667873,557.431291741708,604.082761967239,631.448283695173,565.9118765339,497.888526118094,599.996703840444,642.455320420253,562.680181389288,555.328676171851,517.246924649487,560.75148381292,602.531790281854,606.142411851924,606.687699553715,574.014518440215,543.066343101478,524.611668394339,502.366937716331,504.958625310999,507.021678925525,503.419879865953,504.037897463375,504.123351731458,467.030810603688,457.606621925792,438.332891237849,449.716707074256,462.577911040684
957.967144302973,1010.89094776319,1071.827632527,1108.23072242354,1123.44715474205,1156.84100630653,1216.1029438891,1303.63434718745,1229.69381461074,1144.70177712933,1071.94153498964,1087.61267136426,1233.98983796266,1184.71776052875,1151.51302931334,1215.09589249431,1320.24009539468,1332.56469020905,1288.589833519,1264.11412498785,1205.89099364145,1197.3427903283,1229.72683642076,1246.23166188099,1326.22786375314,1310.56524719498,1274.01198251214,1248.46598254984,1270.83792457709,1232.19977513097,1122.28400633045,1111.62031867237,1191.38220515663,1171.72131387683,1159.10644675903,1216.37885170125,1288.95107656864,1333.66236283997,1384.4841420046,1450.80825948788,1524.21507876941,1580.39027803306,1568.20693858852,1514.01639442031,1437.37291938805,1404.25108940727,1467.94024844185,1523.59131352619,1541.12362766599,1573.99676302805,1613.50745223259,1640.01897261586,1645.03430874455,1678.24566779324,1716.7594871484,1720.30100248136,1783.69376613894,1857.75739463015,1957.14082069158,1989.90984231173,1917.09411957289,1869.4579545147,1896.86384460876,1835.4298342175,1766.48461695482,1688.55478705862,1667.25315290987,1645.08673349197,1585.35063975313,1575.01569817878,1616.37509608976,1566.09567374325,1588.41167350137,1639.37240979541,1614.38715575443,1607.42758055656,1572.27207548181,1567.69936782064,1588.50700222435,1587.86503447897,1638.9800324627,1661.63460179294,1662.75755320847,1649.20607686215,1663.02338281961,1752.89152130413,1793.79667072536,1806.38326697533,1780.95557425856,1774.55155308166,1784.65677213509,1675.69542256472,1538.83892477415,1420.20371670977,1386.72737017998,1478.79478901492,1595.71816834595,1699.97138409175,1759.2079017835,1868.206545343,1937.16571740479,1920.30552729867,1837.98386698394,1742.21202472626,1715.50222809173,1770.95912673515,1715.39718116925,1588.95345653124,1538.8126611314,1542.23816386431,1508.47199966348,1457.21655333243,1390.41677776008,1278.44531422638,1173.15831721897,1146.55108194178,1096.99308794978,1008.78538973831,943.273895701108,1025.59989790492,1087.69280674191,1079.57726071977,1102.93950008572,1038.80301827128,1114.23869875492,1223.95181321463,1311.47033411786,1266.26140877387,1173.89416193437,1156.12560559574,1273.01779626454,1394.90088165053,1486.602088802,1492.21149124281,1447.67535618268,1466.19686400235,1320.9048151194,1205.13669495847,1087.57507148311,976.591427549765,868.20267292913,734.375430745184,720.278361724066,859.417513150923,958.038301118991,986.202445138275,1024.33409452736,1116.01503584406,1152.85854078521,1212.49915943486,1252.32323273878,1136.39102892117,1045.49602588802,976.684369647004,916.767288774874,843.401992116957,774.472331108774,739.495140831842,657.045881234096,601.002215973066,620.978399444804,576.182725683378,655.257770005079,662.151516995762,644.260004340957,549.5102594445,514.744108184964,616.165949102381,631.750752122924,566.362468572034,577.21330528457,534.819894645602,618.289776357981,636.672433180376,622.976219934404,601.068649466214,589.877963077682,567.862212258402,544.578207022142,525.109986196735,504.966146921195,499.378072755997,491.467532784954,472.026656682945,460.866385276035,456.296226312203,431.63516330236,403.956682884085,381.451631972642,380.126698934723
989.932887501015,1052.4115632023,1086.12180666977,1159.48955327505,1208.94217241928,1206.52198564027,1259.31905953066,1302.31641561768,1221.22708022542,1131.60437696073,1045.43285420932,1048.34278561384,1188.84772111182,1176.84426869018,1121.89459194238,1179.36679614253,1223.77777395674,1343.60381994393,1386.32592400444,1343.64666011969,1247.05777683628,1259.4327228684,1313.4002587257,1335.40598372643,1402.58972082279,1370.77079960768,1300.96701667363,1221.82747323435,1185.71851846964,1145.17076253169,1118.27907820961,1115.39742208467,1181.19513616294,1247.32256622724,1227.76820377055,1207.40588282213,1275.63011900989,1356.54331826193,1416.80352270477,1486.00665748363,1551.23956364812,1540.66196358674,1506.68472891062,1458.65165315131,1418.40260424268,1395.82107830818,1454.36686482924,1480.17438351931,1520.04610140246,1593.94392845928,1628.99884579169,1586.58826634577,1575.83950527392,1633.06158497493,1664.27117427377,1661.46232238246,1695.94589458901,1819.75804192563,1878.5785626403,1902.42238759027,1969.74178411002,1968.86909645135,1854.22976352678,1744.50408721407,1685.7453252137,1624.206272899,1625.48124171866,1664.88155343881,1620.02868245009,1558.41171407862,1586.02312166447,1593.98618315675,1539.0977590693,1538.22637461023,1536.79106174925,1565.89082811665,1589.93055194418,1624.26385593187,1630.33254415254,1603.02111032965,1609.68133509866,1603.06424014303,1611.73680709291,1617.04399522163,1657.60057167798,1728.42943426926,1763.58985105442,1762.88641962055,1736.81342194328,1760.72082647761,1795.91115855492,1714.28583353425,1587.1981224397,1474.53840185249,1417.67977214992,1527.14645539323,1627.76921314504,1746.73456464972,1834.73407292664,1894.7131926612,1894.64212945687,1927.3181911663,1900.06799464934,1829.56516434833,1809.11896691059,1810.40731909917,1739.17449165951,1685.74121902158,1644.00906280526,1603.83943542309,1541.55517382424,1482.59732236424,1436.08366266015,1365.58419352748,1291.92305332271,1243.46912679606,1170.49836983264,1092.02649934681,983.752485475883,902.86825484403,922.335801515728,929.807237659725,969.464653325661,1000.65623705657,1146.05384638718,1238.34689682553,1210.33216723684,1157.99302738618,1052.86513892293,1094.05433058126,1209.12720763553,1309.62116655743,1325.17311831785,1370.53720829625,1328.5509191355,1309.55532798937,1237.44575197517,1095.62079594649,1005.79964229544,901.688233063595,760.122114287975,766.737845361133,877.582640552915,963.248883073053,1066.87328756275,1120.14980856676,1159.90851241624,1242.32148989125,1300.17626663098,1318.827078653,1384.68225051722,1249.5500067917,1131.17996539064,1048.62209491255,936.932597398094,842.468651606685,757.877901387138,709.507036519387,661.839512047299,699.571022880794,650.826176534727,646.136632545848,671.1742698202,603.883808809208,554.973057880251,558.361357563922,588.875515842138,633.479505946432,620.563156891119,582.681197897515,569.034860403025,538.78414542549,605.776015509091,608.971037952599,589.800771450794,613.46574196922,607.974758509935,590.179732290954,578.124419317161,554.836259173407,556.123197808103,545.628247364446,526.210322954685,495.749799922934,451.811152846994,436.047925256766,449.072601685365,420.674182710655,403.430758075699,366.407452756175
