0,0,0,0,0,0,0,0,0,0,0,0,0,0,0,0,0,0,0,0,0,0,0,0,0,1.15117891723375e-05,-0.0321766940600001,-2.32674864661114,24.5162632771172,101.999700894368,171.492933051647,157.982146428311,181.260123645596,123.891500353458,69.5152341428013,119.649728842985,158.90221076047,203.296704436421,257.153088764809,312.210503852646,361.099413137995,262.260817046107,200.243324535459,225.79423069762,304.657507457909,322.672517932553,249.039890517564,313.852299661492,379.12203679803,385.589862093309,410.320270325372,519.113218329563,559.687422763653,520.283325540961,565.355288812948,562.699838900775,516.454020064947,452.303657341684,488.396022891712,561.222915505778,605.826803486482,612.857356968898,548.988881075451,488.339678127155,484.96372339973,491.127860613436,492.714618023289,500.827681234968,541.099140382021,615.891548522438,611.223349707211,531.493112206972,567.365816254262,597.469741752432,534.640955579972,565.953344902881,642.218633984714,552.507878930871,456.83715600897,461.563437881767,482.489290188436,475.972090783671,454.982535378562,484.795467879984,587.051083486777,687.727921520952,772.728764228302,831.095591578581,901.865870659896,1005.83879664797,1074.67967599007,1094.23057456128,1044.93629975983,948.564317597824,902.241249959186,867.744098493526,839.165853951931,779.306894400997,750.074752485587,786.064094847701,729.773116621086,660.115873806997,616.195872428076,559.651449098196,539.646435465838,548.442062086877,550.814501113617,563.331688000365,547.708019880669,524.747390511115,516.309874063458,504.025360668637,492.035337905079,494.533307450491,505.294466039933,479.364346191972,475.517662868311,482.592163541994,484.99855721956,502.188683032598,502.12856468411,562.472148223168,640.297958994335,698.585063926384,697.090809850773,669.915653954552,629.382593196236,582.707814330133,605.909408622458,581.757584716853,545.796585750965,624.1369090677,715.121212051755,741.861398447098,778.238941772057,864.342936456627,920.209236662763,985.767273153621,1007.61706761406,1028.88144173827,1099.46290219956,1112.72128326586,1100.56083176087,1098.29050525703,1050.28508159081,990.450820489536,963.903753649418,868.490912046026,798.47108768653,750.239906599842,676.369870278647,611.602266584437,574.190519044643,473.939052516606,385.754912992084,285.796198672009,318.483723822067,390.98053874405,465.312111980741,572.974939412992,658.548695396724,723.872081994725,710.40753537718,657.915541538828,607.507661892074,587.435725113509,610.532992686543,642.843142530259,696.779708259875,766.154579440651,858.318950710838,870.706469601904,833.458790647643,819.436398866866,834.882402918288,881.711567225066,895.776711065336,887.987197840474,888.464828654888,889.312589343394,864.678172899248,828.541890309962,799.198390838565,765.857633709555,743.449121063915,706.329722135942,642.917818309458,588.692382492114,555.226351916652
0,0,0,0,0,0,0,0,0,0,0,0,0,0,0,0,0,0,0,0,0,0,0,0,0,0,-0.424035052714668,-0.985091876976758,75.8303134490083,194.934116290353,258.925433071346,252.408656911975,195.14190502665,124.46826925229,122.573559300577,181.503842590179,259.493261677263,315.553756564945,346.244248866551,369.586731099803,289.542017540091,188.892519445633,181.702432209214,209.719457048344,220.339861963602,200.89861757681,233.064957977726,268.327753269862,315.347953185651,375.74031912784,463.118022326727,546.544411970634,587.163763213138,542.728433402733,501.557725181542,490.701460279038,478.427060265337,492.663210384018,516.269379039303,488.584543629351,534.453209237248,606.46713003866,609.818684854398,561.706241046425,576.6524429978,559.5169636846,513.023927905986,513.49517435039,570.332468854648,556.294485294154,581.14742726241,545.22469309453,496.477371880061,512.056014190243,502.339539556006,566.54217440742,630.598737491584,552.601721904423,461.870224257423,467.623259361812,520.205486017725,519.53443232825,504.526556120824,511.876623642715,580.503874681359,694.02743437942,726.113092739302,718.844700353218,796.717143409357,879.266940829291,955.23500587914,1005.7663688811,1002.71365225604,997.444983511114,1008.54756081335,1027.44952913249,944.135895539154,879.929463732623,844.506113849271,813.356447659946,756.760983657974,678.855357836377,611.196972641003,584.004317629934,571.150989722309,631.339621683474,651.326668029719,641.019453466142,588.728629995286,534.101948277686,505.87452959079,491.375590252109,501.603924801619,511.738662044075,497.059868353242,476.195881663276,473.513881951868,465.459571679358,472.592276514971,500.402863823984,518.526797727703,547.527237735435,632.662101216379,677.622895080629,703.992447403817,730.825311596361,689.296034815807,646.897855271941,641.337345894054,561.968526754276,565.951104105363,641.318113455403,706.450807345912,770.07396734494,833.724225055241,905.861741724696,1003.71274051705,1060.62570679329,1068.06762977005,1132.35140468047,1171.09945813479,1096.5011628664,1051.95188488788,1042.93392902017,996.958974539025,932.789563721341,892.198426559526,841.847558400853,807.82671348086,780.306099056749,745.063874331147,707.766730326288,634.190595233831,521.821541252359,416.799332143047,302.446282285668,290.717332301779,386.598264734751,532.435905237371,600.786922152362,615.120207447945,646.737186092075,664.587388728007,608.749372249913,562.18213928161,573.73586595263,592.936632240628,617.808352113826,653.846108430905,715.427744582359,795.002316946825,795.285784655118,789.162419401254,757.015876696747,783.539658077418,829.990981220661,850.709914219261,862.121707764227,858.497194272804,868.112719490203,863.622778312389,849.190381531539,791.718282870202,719.965057761865,673.624789239939,661.073230057693,643.110862433784,623.822592078049,608.118348832502
0,0,0,0,0,0,0,0,0,0,0,0,0,0,0,0,0,0,0,0,0,0,0,0,0,0,-0.223882777450769,-3.47703294151293,72.2876264874555,195.118067190994,264.036169222907,276.458879410195,199.509847571801,219.259041615363,221.996590915564,241.272126444002,253.991729892307,296.842494049871,261.62917015169,308.076390575583,277.784574223294,151.821682571097,148.261707019299,184.420088825075,210.073125759034,262.84142656006,351.732299416393,363.737872150059,400.802588582439,459.166016169413,536.076689443912,600.817089503824,575.409393938205,563.519310990982,538.737273986098,515.30643051723,544.588832261991,494.718522303428,547.416577742802,545.518196401716,496.081205127627,546.55445072328,632.217193351855,656.366035741563,611.906344584253,550.791949357734,510.844863232404,531.795360768526,567.40466182939,518.291849334067,504.404449111149,495.965186398064,570.466076058432,554.642196629498,504.470952815579,485.290245145508,531.97338311264,521.211485512956,496.794586789952,474.314782028164,549.540972592852,603.784810577009,593.062191196211,554.05514328711,531.125842805892,568.453017016744,592.997694510195,652.188679364263,718.369969371399,780.800193143492,866.87392021551,852.992430570353,925.651040201681,1040.69391449021,1062.73512531889,1090.56803123262,1009.30027576386,934.387050766361,879.323762802026,788.838590349675,727.36089950101,678.707241999102,665.193956352365,648.428725670351,592.66060905813,662.47959960695,728.453675954725,673.373013025366,612.870381547929,559.824074315952,520.175349288833,497.830835574181,511.683662772971,506.044447393216,492.503696468137,512.938777886955,521.824288099887,484.627088571733,467.376979485312,503.558295796026,537.954665436574,547.258791737333,582.719847822405,614.67023826816,665.705364672404,726.735157827385,759.476840710854,669.454551929224,597.842957836674,568.024829957565,580.487768749099,615.358564953392,652.557694525553,724.669733831755,833.80288096026,957.094791161275,1038.50890305723,1111.52791721014,1150.03208157963,1116.80310550027,1140.63461029517,1085.43145362763,982.03318084892,972.725689818915,946.847241746976,871.454942717684,802.886827033721,738.163350510376,699.994179035263,718.662463256612,688.076392570271,620.556771362131,594.548281523473,508.018931964571,411.514726387029,318.080816364912,275.08802965212,363.007058813019,424.880419926048,456.037041416007,501.859909800513,553.793036164166,599.548391222661,562.649516441297,528.867860756037,554.288991185081,569.812255133214,617.001907287271,662.023178862294,728.234767404499,792.297552693747,735.226881085447,690.407716145857,691.152312762488,706.868866759046,759.996752261898,799.7188340818,810.567836497658,792.305481248462,805.077645129441,826.304542774207,855.439250537975,843.869599094034,771.848546415469,686.257006273037,626.377676788423,573.355285197616,539.348377658273,578.986940590148
0,0,0,0,0,0,0,0,0,0,0,0,0,0,0,0,0,0,0,0,0,0,0,0,0,0,-0.0722763374494343,-2.45797832696599,33.7790570593343,137.748773877826,246.872091577587,288.291221057836,289.522219570704,281.018298806482,229.615871203784,175.701252791188,198.051597157402,235.473171220133,178.429213889017,249.066088783997,199.842140930474,112.318294832882,149.820929856031,178.662044261372,221.909730934827,269.453157019131,283.91989737145,308.831645807167,354.612024155445,422.178869758854,514.343639448755,522.411588217316,453.249538843882,440.474446502418,501.019571638013,529.217140387738,565.98790696373,557.61505334248,537.925956168751,590.318467071631,526.506697628609,525.705851614025,627.67082878569,683.346262322047,611.980856099644,537.920273782205,536.904551892118,603.594173394494,543.521329486375,508.476334280835,542.314669324137,510.821519165558,574.70776293377,647.372008253104,620.347606316503,519.892415134529,462.974243381459,442.114454662191,463.902126211501,500.777759861,567.740471756737,660.671467759987,683.9850948882,619.752376800668,605.40298382412,554.604365008673,555.442523982282,567.734903171391,610.412133445678,713.860525631816,722.634503225555,784.936261586142,893.369867364865,990.998567583257,1063.83671978926,1013.81597966698,1023.6153415852,1024.12127817772,947.15926744388,851.611004494137,787.130736118018,724.187761772988,688.928068162502,648.063975576498,608.129278287285,662.790547297128,730.117446118503,675.485021108241,599.81471038824,560.056996251813,523.738542334113,500.557447017577,512.136301533075,510.343501881607,512.22451224665,540.949403538782,553.060729992915,496.510686560234,464.843018627438,508.883911530859,536.910223472827,518.193152407524,526.738328815364,573.759631398211,643.119012261497,723.486488300164,746.141538178186,664.303280089171,594.101912608218,619.971292348409,594.20718314667,657.35286963456,713.450221955878,748.401387470202,838.094347010326,936.74772092922,1015.70360247871,1049.38293632414,1065.31841536088,1042.3222838934,1023.10827411344,1057.90713137926,947.445674075749,875.174689506466,879.698137970328,795.234851653897,770.016128070202,709.517551054195,625.356737899342,615.889748621538,617.838045575378,505.081161284152,519.657897089203,501.068880570244,444.684824066586,378.427184436173,275.872666746039,289.375117397457,317.004247245075,339.698646534203,402.108680338514,470.49748758856,527.908158808819,500.840722892823,479.524164920252,508.324766056359,566.842879763856,622.934743115435,655.62395790636,720.631621092435,766.789624845771,677.437909614759,644.22178457096,662.79893431038,632.99717936478,677.643078098708,740.091499038975,748.855647839167,717.818329059358,717.2409991352,742.493338448326,792.881157926974,803.314505218338,776.422092984746,730.018103165934,685.352111203001,617.361872420598,528.635354718685,500.321677545212
0,0,0,0,0,0,0,0,0,0,0,0,0,0,0,0,0,0,0,0,0,0,0,0,0,0,0.00269124790150336,-0.435747575081264,-1.05406015742535,67.1222795502989,172.466345624464,217.102907643807,281.189580045639,250.007787466224,170.504009678366,156.421782127263,152.777078931768,179.653538741144,140.038592790434,174.470418995255,100.318396202489,131.831454602026,157.541682893044,212.158106925141,230.503387168616,237.803504384574,286.072898772354,392.1406959139,416.74227089362,467.525958509052,481.133160063786,430.880272534045,372.241542721608,348.018797501884,417.694977573536,484.767053499194,590.20848174829,639.716252918951,636.021946523074,628.984367044651,560.140192930715,521.362010693778,579.015088528704,620.482912313871,645.783412355981,571.204354184334,603.90024643625,614.997484057252,533.065546383464,526.695541734108,597.413878369384,540.290320752699,524.743868035802,619.676671598421,659.32347895363,573.248814266141,498.556679594988,451.824526695249,505.613648536175,601.378407097559,611.113560799409,671.725890022942,725.458833863235,680.013327697948,698.321457544674,661.705176973341,662.716920439372,606.724569479308,566.32903834105,600.769652791884,638.069477778656,743.648857587693,801.447277965894,890.436841500814,987.496734318518,975.217450936039,1028.61295330511,1122.43557046477,1022.0777430264,896.433698156929,810.825675114366,775.628571366563,731.368666359926,675.623936011911,635.6940675228,683.241822448305,749.075445484275,672.991752667496,606.393128421043,561.3457321855,522.023171866635,512.18212153255,518.720772054136,518.094245670038,516.700862448629,539.665105318621,548.436092914391,480.271580607879,464.743292221035,489.403199844666,505.298049175319,500.67936891464,527.469110812854,591.498541472326,640.197602803127,717.738000750976,748.367935128111,708.60677311882,701.413724226294,688.002213030619,616.691893283369,667.732676941356,715.725123392594,767.612098467691,844.64914192112,951.943604732421,1025.66842639291,1001.99991746675,962.421750650353,954.667714084567,920.088239863087,922.245384905255,898.842062811018,775.538381178344,799.337365529058,723.55545914659,694.74176145072,716.517430595868,647.361300945618,544.387958658462,520.866672775732,453.996086852742,454.289604565881,482.406231281761,385.681225699897,337.930308508647,318.995300127319,312.446593251763,310.975930039168,281.454131609349,312.071617103364,421.999344825941,480.876711137282,448.006020385082,448.8973772559,488.907291905031,531.368447457555,578.854264250814,623.000570195911,682.419688916349,690.260796730636,583.810439237953,635.826954787523,677.634396731581,599.978235909807,566.135745938768,603.879562234415,633.193292400717,655.161519160737,651.628442974039,670.96233374824,712.34916345068,736.760428003943,742.980085460563,702.865811357911,653.890756668286,587.687150258719,533.464781990686,455.118764400427
0,0,0,0,0,0,0,0,0,0,0,0,0,0,0,0,0,0,0,0,0,0,0,0,0,0,0.00013330089917491,0.0512641307850805,-0.947674448759408,0.306542175679798,29.4125949756171,97.0584066975602,170.062626199264,216.484433554372,134.651685774829,105.152993175807,114.639642749917,146.715045382251,82.8644430067826,83.4653380746518,130.689214778635,222.344702373602,281.982548534698,332.866657335338,328.630000342093,334.902637297213,360.994578747064,375.626958124265,343.537329331546,413.342006542431,402.724670024825,325.771380256513,300.311526098581,278.105614718736,353.574455037667,467.904998804933,523.643995657944,593.282121442915,655.946548235993,675.210947077149,623.647969448798,536.549162159492,519.133878780985,593.702090924513,658.465219211395,613.019478019671,596.338343965875,558.098954405465,520.782919095363,564.306232904763,603.700841565923,572.271536233575,615.207493149621,676.382189296516,646.660179875216,545.506827471639,464.900414107286,483.334909978351,546.812750547171,628.72749142781,688.35786988554,717.979628493994,755.127209318051,784.799268906669,767.214609242241,758.965038427281,758.530036747828,691.88187282877,612.023391343457,655.224084163059,676.084468346718,685.164946421515,761.895665619682,807.452593904481,884.285579026059,955.302287963001,1034.97319029306,1153.54231257756,1091.26858776397,957.096310060402,896.859252470454,853.970267571669,795.863108970743,745.698186061827,700.715174103339,693.067806312148,729.189465281841,657.56258421832,568.632171291771,543.377585715445,520.215999560179,521.272470978586,526.80507299167,522.639900877753,526.449199875225,529.36155756801,539.455722623029,480.218959267638,472.016859316187,493.602191269336,507.08563726298,502.251873896949,512.816715262366,567.648507712042,624.504637416636,673.787871505307,732.029844136884,783.400118131231,821.739064728408,731.558208767068,652.359874832687,672.413333631667,741.092307665244,828.35980570677,910.629743387236,984.227013861234,1047.82416259596,992.374713810949,922.362888586167,900.483801823878,877.107103878508,829.165117817292,795.56503334061,691.169826966466,677.545962318998,672.373428043987,607.766254391536,627.886445266435,619.514219201496,536.989219589616,441.087021213516,445.002314164233,384.915524446115,375.56752016365,353.797531614721,354.147736207375,401.612970338588,421.473156653294,402.318233408625,335.199593867114,283.172158877869,381.172005983408,437.787604855994,396.648523198092,430.302698737771,452.498943463126,475.149194205196,548.794008104081,583.519561855777,624.359277062579,612.111006811492,529.869539794798,589.812099658252,666.927068925512,638.791106573811,533.068326906226,508.775013780478,522.525926424165,552.793149855496,575.008264670504,616.473253556085,659.847397689195,678.235963948972,692.004429400378,695.011889000401,642.038814305018,586.257194922749,521.799454168171,450.256277706332
0,0,0,0,0,0,0,0,0,0,0,0,0,0,0,0,0,0,0,0,0,0,0,0,0,0,0,0.000197934852830813,0.0644340391424414,-0.55812431672553,-4.09974044235292,0.215688451912044,43.6184403747394,135.390457384839,145.580895828829,64.319184618154,63.3877026784234,80.1182557031167,85.0301398528772,185.465322821037,262.11462540624,285.056035839326,268.905452058945,245.28413313681,198.825733126151,230.518227666866,256.263849366987,242.665852148262,302.716774843686,316.886608265189,285.05990154239,249.732967147395,226.066904590172,285.322952198683,414.451772694762,432.826110404985,419.323596689798,532.892568431707,571.997715409886,593.344326390433,641.474463670597,593.922685317421,536.288149624684,602.569362747692,648.829472103414,590.934453424997,544.934823095896,528.865057986867,533.200392183357,589.50153019808,653.77824034304,644.547070469292,700.578827844407,711.379223003172,630.542013782845,513.625043679087,448.382729213346,483.400030723397,555.358150395826,611.830410447649,679.253435139638,653.486539099107,676.766039582081,783.492833323307,831.796019779723,823.885053704924,796.750666835904,719.521212147716,645.164609245996,740.905473789009,734.334955647078,729.935256348561,880.061012947379,848.687128424242,890.076759870055,1016.37934471493,1052.73353982776,1110.19717362829,1148.52574663494,1069.24888095403,970.165200101399,889.502358418391,831.246165851633,763.816933336552,744.389058995351,709.689263691267,645.143122196541,639.73346043349,603.088490817847,563.969993114805,522.287268514693,522.602826017676,527.38338573044,532.061373349362,538.260693149146,525.663986386569,520.797182433828,480.570451502013,477.276730173087,500.761988920375,513.90504565291,509.181910923308,509.971349568272,552.530594900233,599.261195164676,640.196526341391,723.80401940398,811.068258628713,858.582399932608,797.356831541498,769.210844418131,728.96683328821,806.322562552414,851.254916969792,870.983685360797,941.443626774854,1037.7052953398,1026.72114299716,947.948192227841,888.325519382884,837.584294836688,788.754908352873,707.440184824911,648.276707057065,597.906895911161,580.274300900857,553.979087383993,532.055251580399,515.081529282713,438.438920515414,389.816800229017,380.64660631446,401.868808400063,422.20168411151,457.650255202547,480.231800791539,530.917727744583,500.855241061361,420.802976689341,329.264515262707,274.649331163419,335.685044440209,368.95543559197,351.522607731144,395.962377792828,432.945272119007,467.658393193831,506.538845731776,534.247062633074,573.967807986024,537.651396977275,465.705367824885,548.928916271709,629.814452565716,623.490841578478,539.606168121377,479.918050892183,464.881229678541,484.700457172004,503.94858543274,567.074278288297,601.605028593024,629.447185849111,623.153654079473,644.935887238399,630.153134382666,596.654232408417,538.768780424783,452.539312714113
0,0,0,0,0,0,0,0,0,0,0,0,0,0,0,0,0,0,0,0,0,0,0,0,0,0,0,0,1.47681307514483e-05,0.00187925703035403,0.0569837659484681,-0.856381026736367,-4.97663623427378,8.30216079349938,40.6536394643667,47.634048762059,117.816870668531,151.045763907997,213.839205150704,273.871818969536,270.635139633983,202.575706045321,107.520136771326,99.7349623588482,111.734954646885,117.784991793956,125.802993131213,149.871487330947,182.381045125279,165.152568444141,177.760531877695,177.53131831842,184.703153692016,264.389693420557,319.99114787127,320.286246944466,390.062956288063,465.332906741743,456.590714133203,474.283321951099,585.215098524605,633.86735942779,565.51890105318,620.72942264903,679.145605391462,635.235923669311,575.482970734393,568.096631574431,590.838974023594,618.148719503358,688.540674738649,720.362544676509,726.966168956195,703.045458829555,637.936551818384,552.441997996055,476.887852949646,454.158775230879,498.305863681217,541.852960794416,576.01233753086,573.73582642994,632.926388266347,742.344890340979,842.734520492073,869.758216841795,829.272885808515,747.982543701322,694.044242426064,799.607439502257,762.467409669094,751.118568803161,921.990160261203,952.209167423519,911.030845594478,970.83752777684,1015.68218177587,1074.53101895574,1165.14709910195,1096.3361573417,1008.7633495641,933.431594704228,828.649328521496,783.88188181882,726.687920424875,678.934659950427,630.3418800249,602.178444364219,585.295396305484,557.133472364036,553.848298452231,544.25064713299,534.047964887975,555.889466970642,556.609898113876,551.988914002219,534.378644643071,484.464589084183,472.032875036719,500.888074007902,532.363032854505,530.739900845034,511.698795899628,534.15458666911,588.536914671886,663.148434413921,726.195200880446,794.171443320932,885.274518003003,882.092356033309,834.390816485858,842.542089476013,829.933818782252,808.417590280465,844.07091346017,940.437763756754,1016.85138696531,1035.56198869323,1007.89195995309,917.439050129086,828.07161855042,784.142454246374,726.724285823739,657.152570707274,602.764805881542,524.214852239418,492.480395797872,457.239772731216,429.451436616,423.865574920178,468.851549166124,487.385016194141,509.876038802377,540.215074725071,558.991129617638,613.334831210601,624.457853409205,529.754850702822,410.030782627067,283.399903176209,296.06316567938,293.663432227495,291.685622886568,294.746008650398,342.173574802203,368.336039331563,400.565397991921,426.910924776244,441.574185619434,490.078461108757,455.139665158364,439.310479013202,527.959950830534,602.5079792998,561.418400697593,518.366152245885,458.930072465661,427.484154004475,433.327456916035,473.500237067015,507.144389229695,547.551278240957,586.706997351801,551.129795441409,542.62440963098,564.797858292849,560.598698145178,531.805438404058,438.940401117928
0,0,0,0,0,0,0,0,0,0,0,0,0,0,0,0,0,0,0,0,0,0,0,0,0,0,0,0,0,0,4.87324318237992e-07,0.00707772045675432,0.0475532895546495,-3.3311553613164,7.35141923154639,118.524606138742,179.891502589281,223.150321590469,187.66872598594,187.263702843752,112.338851190506,83.5929678072155,124.713710911134,169.895016429171,249.09838781967,216.246188805028,209.251289563723,207.524629808329,193.499167718941,226.682019855039,218.837648579785,277.321622436093,260.220067157737,220.991496954099,228.341910496642,278.80290012936,301.352375094146,336.840844836852,377.197368941794,430.091281183504,518.918250930455,624.258649807142,637.050220061039,658.373542798986,700.765000157873,668.244348937558,638.611559757142,624.585709890359,641.459117831026,677.940564297174,711.463380104373,714.471248831502,684.019742695486,636.140493682353,637.247324023264,611.336048557241,523.274438841702,464.483414527682,479.557895884438,504.5003324805,518.670139706882,544.862134429196,609.526545638744,699.134437132591,797.577026918041,887.878694640729,885.054225327369,809.015696430741,761.808130838006,830.589318662244,813.191001411077,782.04687469394,874.521858718733,997.050600913634,1011.31353457474,1058.43345262833,1121.96959881108,1128.14689385186,1177.11396506023,1155.0239919027,1094.28462698462,1005.13270001997,883.506353384021,833.803816883763,774.276524688413,729.850098711042,693.778281159418,656.227774853164,637.205555003723,587.088276212874,561.281013429189,559.801886371363,537.623503995442,571.985390772159,595.49049180134,577.564755996597,537.691865015624,485.187342653557,473.271394866254,490.367474717732,543.334046345949,573.014794518983,518.794922066776,528.826635668051,594.28619954017,654.795233290885,733.307422901056,827.009959915175,888.553101901048,896.654666541499,834.66013672811,814.242702058234,832.623382595003,789.738228043209,816.032622319793,888.310430960284,952.301977103184,968.718265901501,1007.79560713924,950.607405423336,882.822067520552,904.006079188107,865.276747377502,715.601361301111,635.928163486933,543.803680977024,490.10145315483,491.091700818302,534.076855970763,547.117262024396,555.715498832138,604.366328399842,609.133709074241,630.535399268183,609.19913707822,634.348492848139,576.782781881653,477.053395411089,375.236373773846,281.830814813417,350.593380032011,371.127498456059,351.403769743504,327.476101286579,294.697577811058,290.198430786865,317.373109841002,334.764127728117,317.417641654691,368.402098645766,385.804612652126,491.452975206365,595.99069645515,633.597556579546,520.226235254525,507.773622566174,496.486362937828,430.74083209968,376.973505635946,409.630888375941,467.899319827934,522.668395994893,524.003797153778,476.749543295749,442.783295168536,450.034917220206,468.430407686786,484.139772218729,400.274307305263
0,0,0,0,0,0,0,0,0,0,0,0,0,0,0,0,0,0,0,0,0,0,0,0,0,0,0,0,0,0,0,0,0.000172721761575915,-0.0762733660865583,-2.75499296238935,43.8510230022861,119.580152572587,120.560372687466,67.005663903057,74.79445768785,122.288548056006,191.41946084713,267.488054004281,284.924349009794,348.944585559072,351.571579299599,346.421404546495,351.54946754837,354.492000063778,379.139691144323,339.367431932969,379.509065295665,374.010954140733,299.043731916791,311.921653454766,300.246379814311,344.951836693253,346.822836439987,413.731046119345,517.12928382739,578.612460344101,636.781207756284,699.516369474417,721.953439457962,720.45383823692,698.813533298291,703.079802361326,695.445420748236,699.931465352468,689.64855825703,727.635783201298,681.433426308506,633.860469163355,587.526364270389,553.773863045019,577.052431516955,500.301172762649,481.557721372275,530.820353870627,563.510288502647,592.24143081384,615.487112987665,616.117775628813,704.991333549826,809.576934616626,895.658179663095,930.435138777291,897.340532231086,849.216910008761,904.137937435979,904.853115547813,886.026640734477,843.62552327707,927.018371448468,1022.22902859429,1103.27462224843,1191.24628782571,1186.93737237318,1178.73177922545,1167.36501429341,1098.20255259159,1008.14869100625,936.607759843538,844.407897547332,768.696640823939,726.533982121917,692.049899656757,663.186653631198,635.585704304797,593.080924655895,569.191598138784,561.302975098494,537.03350141822,530.409868497789,542.30008327343,530.39496062705,508.850755980641,496.361818183894,476.998035196546,494.916832255033,523.760470138735,543.576933327202,513.141034588768,531.220378139297,596.22921387524,658.959017163756,736.117704932595,861.725630065972,882.194934457198,856.39339186306,828.98287863467,794.827538510874,791.043824344198,777.262789928704,766.847381680443,840.650678522575,914.642315605056,897.445315662325,921.339612828964,952.280677907518,977.15877543985,943.588920326076,839.137455688423,701.717275392297,586.375772209401,511.918956189993,568.5994513763,609.380705376911,644.236337991807,651.01509464457,663.823698324154,690.822416111989,718.777509227889,723.451382883222,591.859658436928,548.247892821858,515.455582917758,421.215895501262,339.512600557998,297.352381818908,388.323441474083,465.150949748846,454.796769303596,432.030443735961,378.162356868434,322.410120493821,304.307239815126,312.366677879645,349.272104269954,307.887135204078,330.356422248277,385.945288906754,443.623797132624,466.045777298868,429.603785777749,453.699363407963,441.174672286705,438.518628615322,357.424912202937,348.390844093766,430.389090347534,464.044150992235,458.297117198571,416.122152429577,367.109395822059,355.660882929926,391.551313425828,411.294556239682,338.081461197268
0,0,0,0,0,0,0,0,0,0,0,0,0,0,0,0,0,0,0,0,0,0,0,0,0,0,0,0,0,0,0,0,0,0.0154623162534027,-1.17432264912013,9.79829209996212,36.0557585223686,35.2460802965791,92.6785542710621,156.348955755751,168.01380139529,200.780276670499,253.789556204698,245.796057617871,241.424172746259,301.44996457139,291.149574919017,282.764137256164,340.551385228436,413.154231185774,430.338930143984,488.065287040531,458.411928443065,372.874419338886,419.479700754166,407.553500095435,450.290668976496,463.205834509889,455.699433538879,562.508994479117,664.359330992546,657.210541471132,641.422901647667,713.997648408342,707.785301429461,665.465114861081,727.571591639519,723.739784939734,677.316064505228,645.754580950541,726.276232225796,694.914989291647,604.02965672932,559.388535488352,524.212367738501,510.066300030432,474.047065408323,489.289623554327,591.240133304312,634.819848368448,680.96954561114,724.174068061463,727.270258627548,776.298925864148,805.939492220432,843.912204186462,917.029573688888,939.685734515797,946.752711413997,989.20506502627,983.120696176794,994.778056486918,921.136542260695,881.745863178638,945.042442629325,1003.24832159795,1106.11152427486,1193.75392360301,1170.43622646401,1162.90347106135,1086.8543981461,1013.65628984685,921.971161137076,876.031668011538,826.641260011239,739.760183522814,689.118332907663,659.755265376302,632.924804516052,628.433053851041,596.345254386022,555.458104058044,537.513954592267,533.652265271681,539.842830773179,539.734157037982,527.929790780508,509.553274729553,485.836754249845,527.393914457144,532.122711199713,503.658870463212,504.038530611006,533.801221600575,613.671973587077,699.519045990766,769.134175552561,829.621247867046,855.228014229485,817.594114227598,790.710378767744,801.754052533177,797.41796026685,777.149303775907,765.687578930879,757.703255340246,823.428615373552,853.419164488496,845.172691808257,850.761658310401,915.088923318046,927.707848605244,791.121597330725,656.361675758242,559.403219162436,535.157854869517,648.462426711581,715.164066428392,709.091191161357,766.994169551842,775.829384200177,813.342796075609,777.09517654755,702.580045066854,573.177696196381,500.259539203522,477.171705862388,425.948590458106,301.603297380442,335.062833714963,453.231725954171,529.103232939641,554.493539260496,512.21201896495,427.887373382416,366.550702056514,398.002836415239,410.96357879095,447.488581244947,443.004463976498,417.594970007663,366.115190284165,345.297783871283,337.16613299382,332.23230742062,352.216941699445,329.510980946432,331.124251082271,353.183935614569,338.22334801559,325.641730687047,359.64976333235,381.72523803931,364.778395447866,324.16746430635,339.412553969778,339.90386200136,344.677437384762,357.638188764248
0,0,0,0,0,0,0,0,0,0,0,0,0,0,0,0,0,0,0,0,0,0,0,0,0,0,0,0,0,0,0,0,0,6.98729445177754e-05,-0.761970234499018,4.62456150706567,55.1452996907132,118.140397007171,119.03662660075,88.9939316337183,111.52156243469,138.088669092139,137.552179467968,133.455776466594,164.687301909837,186.628674001695,211.023574420407,246.874184353606,273.069080037027,338.181781998817,413.488258121469,504.122706599102,525.986077650236,492.227478890986,523.068571580068,529.395150783118,571.020256934081,567.722956914926,567.58854302276,607.372402938646,617.551409766017,609.138693609389,677.966239708535,739.700777890003,680.123774124956,604.44859021242,676.946769904104,712.172150605628,646.979168221375,602.877589190476,665.304152135017,704.580510675758,652.171376289173,606.625110970531,547.078693017876,490.642430527852,468.010501081128,465.581969015408,555.366481871061,633.087256737042,640.524420769715,682.685173534914,693.278523498726,704.653426474027,706.531360682263,748.806137955422,823.042027526467,868.296464166998,926.197701925804,931.02471620029,972.661140670592,1028.35147166809,1023.79539392506,919.952016058021,958.073726310363,983.437450527096,1048.87913295126,1140.67414154814,1168.19054295449,1162.55854477152,1091.14399958674,1009.85499759993,992.942284044824,948.329226177361,878.136498359662,765.338306128337,681.981408643362,650.766554065148,607.669492916866,595.635551025219,567.223137058053,554.503855468039,530.653873231652,524.313769413116,520.479105738782,526.293629334651,525.986927669377,512.926069300353,496.054846933955,548.373985362728,532.86824503855,496.015547133962,500.087666356669,519.150682773627,589.303696621421,668.413836303061,683.262560281949,723.647462553799,813.466925422455,862.600836998133,846.267527996361,859.875552405701,828.421097893472,824.302646453698,842.838901979732,767.064870461568,743.611721028092,797.305013921608,790.959597200302,790.875548715607,813.859434459239,818.112064112282,730.435981461517,630.322402799369,549.547656417273,597.15707410205,716.454011685503,776.948009991819,807.745672338782,862.352409681636,873.393592626298,847.823995404874,723.4739410065,628.114022161944,559.309885137597,494.918301287823,441.307473246119,368.917801773368,293.233589043796,358.902569817086,468.778484913605,562.059037878799,597.628176904971,530.575632911781,442.55062344342,401.629287243276,451.967864945814,515.172166901164,546.065793564064,568.933269378909,614.261889281318,590.292953584736,551.488843784071,513.277592818751,439.352955846522,359.067864255903,377.104257069046,454.342317816643,489.682844874685,460.836241985666,391.991561521013,340.755727266535,324.998054913172,314.129142791433,336.131987744651,400.313895115878,413.50321855695,371.112035381223,428.073066833564
0,0,0,0,0,0,0,0,0,0,0,0,0,0,0,0,0,0,0,0,0,0,0,0,0,0,0,0,0,0,0,0,0,2.61375498606785e-06,0.0424168792351518,-2.62033996798536,15.7437131525783,137.357054615125,223.414979240081,175.430508762496,172.448458852682,249.952838761239,282.986726921622,243.709086677183,243.238382703405,282.018799220201,286.869542953048,343.864914169359,363.584184475253,402.862555337765,426.561309070523,428.227180863247,505.252012511508,567.900863762659,578.95455886887,609.764831484189,626.723424150205,630.399190963128,647.617378258417,671.5658606758,594.841108527564,601.116159051242,699.860178913224,724.283258619868,649.834431360833,565.851236357638,591.43862559163,669.800877999829,641.834262113127,570.514178894523,625.713632544025,681.987539490343,655.035206292532,617.096484714719,544.295283685825,490.383754439786,456.916138531359,468.76209552663,566.053503551986,560.731523190327,540.938048991542,569.951555705421,572.495887721409,588.494818505439,626.445686804375,670.885979980695,705.686287675248,764.217862635631,846.06078120854,832.464494168004,849.858954813937,948.808177403008,1031.50161589679,961.254286022214,1027.01056189641,1042.13340468787,1106.34792612043,1224.66297480887,1187.78530077987,1159.71214743273,1146.22800491969,1070.59006474,1036.00893299359,970.6236676454,878.042676822716,758.160350243308,678.453338711797,630.765666298625,596.236282774751,580.1685121779,573.626404092633,544.816221071819,522.693428802061,520.825158160339,519.360264887088,511.529384699098,516.078208508598,524.836505395411,508.324911207048,552.430971411545,526.169724303964,493.608932242636,497.051218942315,505.668170077463,533.194546451453,577.438262533591,619.296373725975,685.297892811188,760.082138068735,843.753616600257,890.978531973937,882.221911692471,826.17606333602,785.983816064431,806.780850330121,794.9555808654,712.521847817193,718.834059811767,727.785079425005,743.016881332965,739.351985864068,705.178243338512,667.675437486978,589.746914723766,556.889586955974,649.509092575261,759.51354638376,836.34439188498,915.196792057984,953.298865304905,910.688882311964,820.462453693204,735.616852518515,628.459067095951,525.358173475689,466.122614006599,413.645091167377,342.815952086351,334.212122801698,419.819344137864,469.730419185437,568.777400728921,613.424524196684,570.380797183116,519.370150242124,446.563661580438,471.14535006063,534.081919673986,586.105753703045,627.241142314639,693.287397801954,741.982725271762,735.399414559121,694.83671828216,634.161400961778,557.113723525593,513.081180081657,546.305974732947,535.202274574784,500.940788573695,461.925986311136,427.030723987358,369.867879430112,326.963910029676,360.12697108607,410.019796221845,497.692363833025,539.311420750908,552.315440869341
0,0,0,0,0,0,0,0,0,0,0,0,0,0,0,0,0,0,0,0,0,0,0,0,0,0,0,0,0,0,0,0,0,0,0.00199625235408604,-0.145827955641523,-2.47821214503193,41.6480420828647,145.153262969795,232.361122540026,289.340005190366,334.191168669018,357.166169899287,362.421096582447,357.860782593097,377.172845323009,381.400589674337,363.092271447598,309.952816669012,280.626202722342,320.964498189696,370.666382149295,409.196527615058,484.161319108914,506.175717416613,515.9408635424,592.871812263353,603.134466875008,606.009387357154,660.798171698033,605.837981293978,580.550795783944,633.647331770896,651.140583936861,665.10128604217,606.877499202461,547.338021101339,604.893656108353,609.486908579422,542.84524297912,572.221373584492,622.89899907229,561.934598092636,558.806593715322,550.762883116269,486.821003406057,450.934340932503,471.152440446536,527.229746296903,540.542230922142,567.753026334101,556.577557106818,589.160983109783,587.879123923761,597.419608487528,610.490796322568,636.305090532361,664.051739601436,717.392202613344,744.604300724405,803.274484253204,900.397091132691,987.263311225277,1037.43584740228,1027.16457418734,1083.18281629482,1137.51910508814,1247.11893382109,1194.13154570936,1128.57828859041,1135.86553371256,1073.16003183116,982.488014972261,928.228161484974,846.938751114217,769.81953568054,712.319688493831,669.686036577788,628.104495140837,622.117323538356,620.26540934397,567.050571001428,523.713996284786,516.701022429638,521.596286432918,517.109113939752,509.835861914913,506.017006497298,501.064070652353,531.766426636524,516.523878094548,489.757094462692,494.140132065171,499.715182088062,511.946456567564,549.127597106646,595.072053857686,652.649684144941,739.646341929609,795.209959599288,799.590762028535,842.204319725036,844.622215966656,784.722981237712,737.822475972078,728.607799926429,724.901943143453,705.370114415656,683.20559622956,666.321647725763,664.422824727391,633.806354018438,598.396316150987,575.885320291242,627.321299573284,668.392304454327,738.111857788546,838.423690051105,950.605031544731,958.961306910995,847.670107116531,723.904690672154,638.361368537278,559.225072681115,464.424954538654,430.88484008209,411.528810728722,361.270385977332,311.210985392135,392.788420575629,493.829082731215,590.375531619493,653.922676681705,638.794734401897,589.708055795915,508.397838628231,494.905753919858,579.954223844185,614.862479865355,628.512333892483,679.749629442176,784.597227384569,798.729167482682,791.180681630423,737.045100043117,667.292090386475,629.542360853386,612.370029989807,573.108617601275,508.465831522137,480.264414914202,453.675388920167,391.794007041255,352.833333807936,390.95669443102,458.909266884761,541.726043376242,621.279233716817,660.474062963874
0,0,0,0,0,0,0,0,0,0,0,0,0,0,0,0,0,0,0,0,0,0,0,0,0,0,0,0,0,0,0,0,0,0,0,0.0247690208908136,-0.410940611915357,-2.38670667522765,35.7434115250934,159.216299040434,210.941578822427,221.786641969759,216.566443120294,268.132716679983,360.179048957902,315.561005779376,339.75240964523,290.261730365917,192.152125664952,211.631128554627,278.033668275123,284.07180630078,373.108303565738,413.656668734427,375.397617540253,402.101600698943,507.981306062274,614.449981084266,590.998544928247,583.502986361137,557.778407512104,560.602832655511,583.412373426288,596.697345326264,629.445196996909,585.294275191927,542.597163062746,529.406382072121,520.124538105926,503.578798111541,496.630774640143,516.973258778728,501.852471997474,489.999790791678,493.485145703582,461.925287267981,466.880349699128,484.343624650728,499.244025794144,585.994679653753,656.651955290936,643.618953289905,668.186843198636,676.780878599037,697.605032470254,686.005489148501,711.280514956437,724.09789540559,732.878460054959,792.107103180584,810.26765316874,868.325688201718,968.127921331448,1078.75724247382,1120.07642530581,1175.33042039241,1179.85154935396,1237.60279504664,1194.65719617548,1107.66783042012,1046.14885617146,1059.68709466179,1004.85064391833,918.311479162693,895.208886527379,822.250554836373,738.545597315671,683.156429991982,643.44601320494,615.282594561581,598.39400689656,574.908499326782,521.820932790993,512.19509814675,513.682367393599,518.880019591388,515.854202266786,507.069948261411,499.859841990148,507.569009689657,503.048480434712,492.993753093771,493.236032640069,499.434904943187,517.220893513624,554.755255783119,616.580373369412,651.521314496859,719.127529470081,775.551323529648,768.525974132348,771.833171204731,796.856170065288,765.889911001067,722.603876280315,789.384099534902,835.355812878401,777.48072105591,766.989572081625,746.969762984282,708.597365630774,653.631091263577,627.274065729229,586.682826211113,646.756577584282,726.186198978834,789.281370827784,835.778663022021,946.962503981172,935.966163263961,842.057897610997,733.173609786446,646.235308862714,569.438960008359,511.193714075382,533.343690626495,493.170964136896,381.763177262327,308.496864142903,403.971873349218,497.923870994477,577.014671399849,663.823903735095,710.130893660341,642.577724153925,545.201345906366,539.534480529558,651.192350251225,692.798391578984,659.767258010856,719.915075264225,872.47770712895,870.267890791514,861.936345043017,796.643910801146,739.599357054385,729.633094965434,681.808599057214,636.923948255105,576.918619720679,520.557990969347,440.286001250555,387.957308564247,409.636211706501,450.880650343344,520.575568277222,596.597471690492,663.49532848182,721.976258169678
0,0,0,0,0,0,0,0,0,0,0,0,0,0,0,0,0,0,0,0,0,0,0,0,0,0,0,0,0,0,0,0,0,0,0,3.71658654172488e-05,0.0129855031856783,-1.26502871676251,11.60071030536,59.2154786686671,108.662809566682,153.240575522773,217.717340020657,301.45809096118,330.12062360903,207.901347505248,262.654296428377,270.559144897949,167.653638587541,178.897604227136,245.541808080893,341.78742086509,398.541169215861,331.347240404385,289.266882826161,394.386288943888,500.983937093392,605.576495898946,607.16989986978,601.024472551927,576.021848242586,553.173145558578,539.844493889642,555.877197109122,569.610920464536,536.145508898607,512.438757534875,505.495020036805,522.689315141331,552.543989400725,550.605882865164,547.223565776674,549.628527477628,511.494034696224,479.892124850729,456.263225409834,486.682525089767,481.520854949183,510.319879237936,615.938790675584,709.466652721551,731.923510993406,756.565246002434,766.625334425235,792.890074029574,758.06221394806,772.315175811591,775.990046483119,797.467715001234,865.681176665519,902.85589897234,947.861525817002,963.16116599424,980.664591725381,1029.82727081494,1135.99831324401,1241.6196165511,1263.15989373638,1194.89496169577,1107.28501117169,1017.8291321554,943.137406833551,962.024834624683,923.17140504389,879.675651021301,880.144832556628,812.182390000875,732.852321523728,665.964710052834,627.917860267078,584.477266160555,555.491927734138,529.951779518205,518.312156675463,523.297152006046,522.714171715359,522.81412311481,504.100788774948,511.599256184093,516.384294303246,512.098360734256,504.972567574579,494.47448706172,498.042922361142,505.214481569025,537.05794460387,600.236531973258,656.963603783645,702.717386063437,752.017329325369,787.009465199991,774.561940602614,740.66810330987,742.018603776189,754.627480545995,816.034316274786,879.535316890217,854.693861482718,836.60281683788,808.55395157157,765.50673454417,722.149713491916,665.57069170079,602.224900828639,642.158826296496,718.57712053594,821.188576413387,899.387847908405,986.153265595225,990.393312175046,914.661586977249,817.955730773363,729.472445732483,643.462718533934,644.828192080545,598.481477065568,489.059798793618,382.469221074673,303.98356818256,376.796827019543,462.216395726883,515.993343232665,591.648794045518,710.146349073368,667.479979597482,596.529365692166,565.012861171688,663.188184430099,739.046716866983,721.659535725852,785.145511460645,932.590322891111,955.767466342866,932.013235636356,871.883644563503,820.020950343759,806.391661302281,754.163224870662,651.949634138567,582.277493658411,529.604999370853,431.124854866047,429.188293698337,501.813577770614,509.330692962087,563.974954536554,627.459199152683,673.603467147024,738.184820820855
0,0,0,0,0,0,0,0,0,0,0,0,0,0,0,0,0,0,0,0,0,0,0,0,0,0,0,0,0,0,0,0,0,0,0,0,0.00159125139255753,-0.597168103569802,2.84034444286436,40.5785522740323,155.544236002321,261.942783988564,299.592782914069,336.806930171892,287.373570409188,194.059885420438,141.711934101122,189.487827048731,134.443440441053,210.840277703279,284.63162777448,310.538678811648,295.662593931793,236.975686966079,291.091226929533,395.587878914957,515.895362509562,599.338656334842,561.668213215024,527.527640752374,505.905248333267,590.750560406163,576.304801634307,542.725664647066,526.607252874554,525.409593000901,560.765251258087,553.570281443048,596.683624111822,632.438000713951,656.054195784386,657.979374193415,656.537904345235,595.697644409837,549.981769737899,474.439547635202,466.302224260562,464.310864301759,505.537660348056,566.686479652349,661.962657436584,739.591362470618,767.436109895368,814.40692629902,799.238511695684,736.078141083201,705.274839350769,685.722512957312,701.073692543578,773.618636082188,869.831363244975,910.030315706129,859.877420867851,864.053511245585,953.578212150079,1094.13729610351,1196.4423161533,1188.47393352536,1170.6630452662,1109.47957131725,995.64335269947,883.602071075816,820.460795873597,823.851540807114,775.502428056801,781.031905604892,782.296640234365,718.701803186721,636.758299829985,609.650238525202,580.158813427573,567.687506099323,546.714661628473,532.562778202565,522.029629524964,520.939882071504,516.320974795859,516.44890158541,524.152200140061,520.822839885291,515.771572435805,511.608432686163,501.690184873934,496.497294201711,499.528540148589,507.124885031918,545.095085567015,621.163159434662,685.912016795336,749.637418766448,797.93326104622,781.951456574962,789.449423222394,806.533592268547,828.099326365198,891.473656032078,936.370656110451,924.474966150298,883.104585507671,858.379941191578,815.894964493403,764.177184230548,689.760001568058,623.55480931911,679.588245941224,751.387928121251,840.309139588475,912.43511622679,988.693360188647,1037.99362018202,973.003590449129,895.301293073856,782.458626109965,734.75494761966,731.828756304994,639.425790762043,514.714243774909,399.099852078657,326.829125947963,320.044706599355,402.669704250887,466.94979437442,549.614189120802,663.783169926767,682.733468682318,670.385594208687,608.635595335762,621.849886446465,707.723174335585,763.271185508179,821.839572997512,903.690605615833,968.039546203363,975.642011927064,958.997094379828,908.480192845889,843.675761347539,751.319060291772,658.438758921585,592.656355168794,506.44457259431,418.805489658229,465.236701095681,541.214499396072,542.490365023866,549.389850427823,611.149354028286,645.116928964007,719.411857292535
0,0,0,0,0,0,0,0,0,0,0,0,0,0,0,0,0,0,0,0,0,0,0,0,0,0,0,0,0,0,0,0,0,0,0,0,1.3827106577464e-05,-0.259433939788509,0.905131209646891,21.2797147670213,70.9823438568679,129.494847245558,160.86072091743,250.824481832709,164.49213064326,115.512187189714,106.253206831351,120.516298125767,126.195909646272,144.743004168173,161.943329528095,176.558669064355,195.986961002639,232.478056840426,316.873920477668,384.776495030391,490.970347925296,569.303218689852,481.027314456159,420.630410543261,448.878136941686,556.503485921752,503.692386083652,537.884658376834,504.668096556766,538.731312101523,648.716063671752,631.409010733496,642.168649456864,703.925420175807,706.964756414952,727.933588655519,690.807109825441,654.084831098763,591.482252550163,491.54047344303,467.594205408606,471.769417847318,487.16679137328,559.979520644358,622.364824552424,648.053067423847,671.487714910092,749.152871696411,750.996124114746,691.373204177101,623.02406656513,600.570623734859,635.617325877597,728.363894027224,819.373361004232,814.811025032585,761.511134527532,825.919654087387,952.133941402077,1093.04330922296,1130.14283065975,1088.46108535809,1074.54070753462,1121.10833352503,1006.9875453888,913.879326869961,859.011566097103,772.097270528262,730.401912593824,698.128992290504,678.150490334775,667.001473732741,621.054023023926,606.845567145067,622.443356159857,609.771614376651,582.542963535371,555.722699022491,529.045535629095,544.249633260441,543.833180239248,526.40418363183,521.520164619094,517.237526979544,515.566389548269,515.831055908302,505.098065981059,498.287837502018,497.458662975405,502.428518942834,521.354475589311,591.705010600216,683.96236294862,741.309828020969,778.327710258458,795.803548940888,811.497120460919,838.735178830553,835.045617234393,884.825744849928,975.748462789346,943.114709765992,894.129921456924,843.116029397157,790.511011777356,753.184589765958,692.043189407063,630.373255785718,696.751268348519,766.687162863524,821.1017669532,847.398562096479,899.669714045741,1006.82807728048,1051.82604261322,959.318943554724,874.529097160526,812.543935775882,772.075721117995,679.799998844649,522.420350735701,420.798070724288,406.751396137379,328.27977927914,305.54573646099,395.909202535209,499.776083532195,553.182149285945,599.260487984559,661.518993564008,697.51814232199,663.187293323581,679.002155230134,736.409776076713,808.504026241771,894.126936589149,935.22784669109,964.834214902959,999.229297955612,973.922697154339,916.218628061125,852.004402829008,740.197900455993,616.719079013016,505.710731729674,438.570138870978,512.766652851644,487.875964114678,494.611428571832,503.191219039577,555.10638085375,612.199441081036,714.874821646623
0,0,0,0,0,0,0,0,0,0,0,0,0,0,0,0,0,0,0,0,0,0,0,0,0,0,0,0,0,0,0,0,0,0,0,0,0,-0.159098071699219,0.564019000534071,13.7365673210812,46.3454719703091,43.7451091261957,59.0810461227802,108.420345780344,91.3802352679018,120.644376253722,202.08758845185,222.954990164254,237.174772917872,213.520008736853,241.436283121123,273.683279872417,318.168374899616,322.031083050699,352.653462739688,409.913619653076,474.291385416926,494.434350497004,404.303876100075,322.201203932481,417.216344123311,485.392716011061,401.528954579517,445.805770979064,416.277735179544,489.205082091261,620.328497736282,593.565735796506,619.676953310601,716.40848550269,701.024414173389,640.020504043441,622.062302817754,584.245501191298,541.537446410927,485.616269404575,533.124614046706,517.518130736269,472.886784628283,522.962658661691,560.022697145222,577.910047776815,633.690864070784,651.704943516844,657.198919762129,640.891052519063,595.846292888252,565.719521952728,626.59380688567,692.049246285625,747.383793745731,720.3273780304,736.766809406561,845.394933073368,938.71405907682,1034.68786900271,1062.51059729914,999.395839703697,971.521106981971,1032.80091677413,1046.83621882804,992.462881927089,908.693427833545,825.499182230859,790.347115981223,762.767136820801,796.627688892186,791.191565124739,687.700026859543,608.991118543025,586.242960788527,589.802300191752,565.43224585453,543.937913796035,533.31631994656,538.272262292875,534.64769557798,529.048053670222,514.60821175294,514.135993380798,516.709362302595,516.318115515545,507.586754124144,501.533695258935,497.425784794072,499.912084481326,522.978089171424,596.374458352007,687.419019789275,733.865544261149,737.416111943943,741.947925379983,728.918580982918,746.284549618158,763.790105831592,848.998471902011,954.174536067681,972.39572806014,912.559519787518,869.512586267656,831.160796333404,768.12356814905,708.447029017328,686.120988938224,651.410079018053,678.692046400746,732.429488044204,805.277870085769,889.648658468829,983.851333319118,1059.12412301633,1030.91646683357,935.645415071656,837.877139363114,769.218322599433,683.791616650328,552.831147860238,519.70177414179,516.656599007325,437.910988489981,347.7854610807,325.487775900517,410.659659563013,445.932544812537,502.293880951345,586.866493415172,694.139521993215,760.340211903069,721.782351227853,710.04033060407,787.628881003034,916.257993134512,954.407576748602,979.417321055519,1017.6582747194,1029.67634375399,998.267439030859,927.868860025249,781.693104291494,663.342585183821,569.238134629013,457.240279710046,455.213618918845,526.940296333746,621.549054668467,587.97022391762,536.702426533043,564.39074304761,665.239787076139
0,0,0,0,0,0,0,0,0,0,0,0,0,0,0,0,0,0,0,0,0,0,0,0,0,0,0,0,0,0,0,0,0,0,0,0,0,-0.204473838847619,0.353260551441558,19.8991583143271,105.914856006973,145.459735698915,107.718958496249,106.041135666212,209.880469260278,236.933019429864,295.372777015076,327.498344030236,331.398783082046,321.931425176007,359.071621647395,383.082849294052,367.378720009354,377.393157027734,388.333739573858,449.730402565922,463.379257905935,383.915384521001,338.024759779809,284.597101034229,408.928477488978,435.724479782983,337.09794896042,354.750969659547,376.434426445262,504.339268302882,607.16424066895,557.493051749164,567.246803612444,632.793999027029,682.125622457907,599.907533977871,545.926080437597,516.495819197731,480.796353911524,534.643613761041,584.722288275563,508.782183445624,460.897383487102,478.559233568016,531.269808569196,533.447521179572,585.099128697715,611.380088113646,572.006907682187,550.659681409998,559.845034858872,570.817857090945,575.891683932132,601.587412382382,656.611333170754,663.853369851437,703.054683507152,786.156567180301,853.081611123421,945.864284506774,988.127238124259,937.446096947939,878.162800893702,907.366999719745,953.274304133227,981.421344296604,952.12803459266,910.753401628486,865.842740474138,876.519787158437,864.152057700084,821.710493282996,716.219053557008,630.178335009271,609.696985253802,584.221274351554,570.723541724265,566.759577725742,548.732296608219,534.040183218628,532.446304391635,525.172063040525,516.360830136743,515.22094895141,519.853509326299,514.65474571999,504.28109747305,496.529546776579,495.732865502783,495.367050762022,532.142365010078,633.835269060483,708.635888230168,752.150524351613,780.897790718804,753.22380570332,725.392115412324,704.990448432912,758.362990948037,826.348375275232,916.464996729324,991.272012827959,953.815672579805,939.481767396138,932.347245142063,891.456028410844,790.692651367146,767.502873790795,713.317836184799,660.499683292261,707.929460359318,781.160801508618,859.266101463371,950.723840758226,1023.48506687401,1010.25924259835,930.188092993923,828.514070571855,755.481224501738,684.029649487455,636.251823943698,616.319447843816,591.55558593469,526.172911386822,418.791998463635,318.467049741757,340.558936026668,395.468362032531,462.565639844799,574.493105000518,662.357721223648,708.276039295399,689.524541360758,723.044314145918,816.002796434964,888.599216297688,937.976766255609,996.701540787766,1023.23787166642,1033.29876957826,995.338476413568,933.028614147582,834.269500492594,746.567173377144,615.625804921349,505.941853164531,514.695820675513,645.062210282347,701.877120111436,641.350044969158,588.637416190015,596.77393725895,603.598738934568
0,0,0,0,0,0,0,0,0,0,0,0,0,0,0,0,0,0,0,0,0,0,0,0,0,0,0,0,0,0,0,0,0,0,0,0,0,-0.236956348559999,0.658558539324748,21.7147021532434,89.1301958684985,194.537659941851,204.817333283338,181.69737261548,240.518193260143,298.334948672973,277.375858888569,239.796245962636,287.402466290499,328.549073247341,363.86899966603,380.540276282965,266.137496855534,235.937082458432,290.692363247845,417.754842574312,459.668619089576,337.886659358946,252.264896177033,259.364835858002,390.443750894505,396.409366027991,297.038122166588,292.483939001204,410.684951709339,517.680239987975,573.64568150845,549.840705534725,527.93358197989,557.260806417702,603.631695435035,610.91389821572,538.02203112991,490.857265900594,512.804328078309,600.534176753764,608.503538009231,512.342583707385,468.172270605088,468.944678997399,499.919535017635,531.17985213408,563.015664864875,552.798830640973,529.568969044177,574.895030421026,640.162944294279,675.290375926769,640.288017879443,622.838434267179,621.099678674322,682.042674727152,733.718675752416,797.005256104328,855.837102401191,860.162106533392,887.67322880034,957.468850417638,862.008274685742,816.680906477269,819.945261920407,911.070442550492,937.516894455645,943.969752789783,967.402561387899,949.135976041855,881.372732028773,830.858034811332,751.440793157651,668.44893415648,634.94622928914,631.656452538652,604.246549284265,571.411660306685,545.153385018369,526.08825511389,527.481967993018,536.319950968435,523.14293074315,513.890923768712,514.426024541874,509.869539603646,502.338374212879,502.451595708063,498.710450322747,496.174214277314,530.739174239475,608.592242576489,665.582204144021,728.669537850515,762.247251262212,751.803901614213,734.933268803948,687.10453314134,711.60702018649,805.184027394152,891.074587494027,952.131820862143,925.958384618736,895.361055063953,934.241635302068,931.992990849002,861.028931748405,811.705923574554,778.771585227586,712.332570669851,681.603038903671,765.382813377569,816.608474816281,870.018089510564,950.297056641799,992.887162520652,964.773987405675,890.891102165411,794.389658774717,742.586049199761,703.089345371315,614.754157343016,505.411633115286,468.071254577765,435.519584913102,364.475155839041,320.003841370179,378.481885894995,454.177371032903,536.419191795256,580.332832327508,619.039695734942,659.812739618139,726.153780238005,823.737219498783,879.571409312353,935.77700919974,995.172825458153,1035.88702519954,1042.81078008035,974.758304670279,907.081701961496,912.893777847374,815.455367956929,665.145581936557,545.685503284838,598.839773237261,712.941637017229,749.359575160938,675.654770547105,649.835577550487,650.512867073586,628.313367074772
0,0,0,0,0,0,0,0,0,0,0,0,0,0,0,0,0,0,0,0,0,0,0,0,0,0,0,0,0,0,0,0,0,0,0,0,0,-0.334513571093952,1.50813189452194,25.6649983125375,75.4640109916534,164.105206946338,217.667824437372,143.412080648875,123.053388355489,192.063543393533,149.626412460136,139.295428739709,245.263015501143,214.699006996913,271.265408295487,359.61366402528,264.510400257282,188.596338002755,271.01935277149,352.129880879619,441.304209218529,355.411550095726,233.581834808411,246.30857786536,353.362488087902,283.269820714647,225.219115275522,284.084694885545,375.013480825186,460.665382473504,544.457075420637,606.485711152189,575.813490111178,520.462442230972,521.474746440955,528.548942924181,503.345218812143,553.865765863682,608.811065815537,656.43684494566,608.757377290485,534.207947055762,479.794296020148,471.163404407767,528.394021049069,564.62978756157,533.876296862151,532.764994885938,570.459977915363,597.370835046546,699.287790986823,764.436535113662,724.030175701499,678.281151428249,686.645500880998,728.061765546247,776.86394957233,817.160345506109,813.074034150191,773.397909834173,839.427648363393,874.164383713364,830.385940723261,748.907746717819,736.086624760391,803.362416335205,860.414240644694,943.38256712287,961.275067299198,924.892100682884,867.140520291191,799.030306743253,714.680430697469,664.203555539028,614.501484359115,602.01742193663,616.767425201145,590.835578732328,558.377774680722,533.307039061766,523.157659984289,544.859911312878,532.090598332928,522.920321044029,519.250424686862,523.070177599364,514.163680389986,506.87313147624,498.545186222497,499.907373506372,514.712422454073,561.990568264544,635.128131402538,689.396963443336,696.474618392278,660.61842356749,668.822294949666,659.38844778597,659.427439082463,783.369707679087,855.649465633926,889.789725096973,876.028927763215,828.060129874641,875.017079970037,880.704398315909,820.226590826939,779.339823458557,747.646852790911,709.884239391006,690.941113974987,723.998728876916,773.76177857374,851.992295262516,938.752464213821,985.633823111276,964.881549261792,911.280794818526,836.59342665866,755.779751784979,661.939275498136,568.140192787495,461.703801783958,420.217126929252,388.288120927992,324.907269810915,337.378844359518,437.312166205399,508.713468247782,541.169563836187,573.140436215032,618.842312008624,698.197987849873,735.390780858413,791.518976992905,855.446446262333,916.974515570399,975.95892408461,1040.06814215019,1077.89411567706,1034.9250607726,1009.22376774979,1004.57904121769,873.569525809301,741.831781455851,640.667058688144,633.894035010379,775.015598281821,840.131430966393,753.69480968899,727.622071465726,695.62262619137,666.639129530318
0,0,0,0,0,0,0,0,0,0,0,0,0,0,0,0,0,0,0,0,0,0,0,0,0,0,0,0,0,0,0,0,0,0,0,0,0,-0.0973967908481619,-0.158863071496025,12.9363198100185,50.4142067370304,101.694541630759,163.346908464226,98.1497719220477,45.1719763702177,83.2870410432688,90.6264658119985,176.494431145455,245.462476061046,174.026785207021,176.687327968249,282.02030740491,276.543096708841,168.239942857667,206.843745780651,321.009032119171,413.285759131949,321.101875223177,203.35612045516,211.107277766516,234.9704749333,203.891957426189,249.748319051428,326.126773552233,361.43219062214,418.614337802084,535.389494880796,636.961704146351,617.535453867623,585.988586387854,552.76626380998,511.164504614787,503.204500674375,571.465824304989,674.143007232242,703.772362887257,653.947731358832,579.227307201679,503.150217829704,476.449696630927,529.410536668836,513.295059084036,510.995749878604,558.911130382409,565.576889222938,625.327612581988,698.049605147993,759.967603154772,735.049864506673,660.481371438535,625.963795415304,653.948513127837,708.332799499229,757.06820059408,720.260732552158,701.078922482486,775.057588495988,745.60619476355,702.28717105456,685.837813668061,735.885436229698,814.815339584679,853.846806233637,914.488470131045,935.962578011792,838.017664154198,801.825398731283,728.830474551043,657.229050995014,615.417615001502,583.286572290877,576.092219314289,603.238499091731,626.58422435568,559.723585843921,532.46854148232,522.888563868864,532.564458416299,539.976190678261,566.871431469707,553.055805819903,534.263489784195,523.374022044377,507.406839335439,501.304602953977,502.310787086591,507.236384808555,548.389551267568,627.589052529833,653.009720179207,643.700356199347,590.76695858185,584.773747955426,605.783444567282,652.040382814619,731.326027401187,810.918098742683,842.926980738197,821.546697372657,801.957064996675,814.581218671677,830.994191942953,785.975467156014,740.543374725547,720.277485367454,707.132943700855,745.606914878261,728.552300123284,792.031632188368,839.027856499496,909.511722648567,960.617247316228,950.684323821648,902.262839921592,841.542993609345,769.515722026418,678.025815251233,586.545953198802,568.741996833733,525.815237816734,420.630199480929,314.334587968457,383.24012565923,506.913277427026,582.639025326389,635.60700414536,667.683443129348,675.513415112716,701.550901789828,720.581524152097,764.739782310937,861.324453888763,930.375012769331,972.378807970242,1030.81775361061,1076.85586722548,1097.35072289174,1080.24851614539,993.922600412813,896.446381449677,855.72238571869,786.298869864449,703.274055772471,792.648218234931,855.543574176232,820.574713706669,794.414086939319,761.736596371134,713.689081425223
0,0,0,0,0,0,0,0,0,0,0,0,0,0,0,0,0,0,0,0,0,0,0,0,0,0,0,0,0,0,0,0,0,0,0,0,0,0.0109364010534487,-0.325362333983156,0.154525095508222,26.1482038589906,49.922181079318,63.5323871250792,29.5571556939947,37.3471183545379,36.3388500854683,65.7693821278474,102.678720160207,128.164428178483,119.362932418992,102.542048310438,193.749372999516,203.934004266526,156.839444678879,283.083951721595,372.452309867074,400.143601582774,311.340389308123,192.964653584585,159.849840340439,200.858988066726,264.161381295732,311.829242602199,390.82468589273,485.837769150052,508.121245955624,585.885561633364,609.230687750369,563.293049814189,588.011502353263,545.538346054293,516.194466643574,543.648197265882,601.958223205451,693.752528767576,713.126239955315,643.706514065466,577.993563709018,510.777339944876,480.288054800108,495.808395580375,489.299904394859,527.324044600077,539.403220706992,547.871022621623,578.940700217376,623.565745055531,696.808377776952,706.773470697703,655.334194171292,573.090870399733,605.34636102365,658.644683281004,717.749065855064,691.362078370213,653.074190824108,697.228082760703,655.384282078927,641.114366996788,748.932548606454,827.258849365738,889.266654334087,949.354951321091,911.947354285508,877.084852728558,821.731020512151,725.76700051297,703.282699290348,677.429350353754,614.336461383943,590.147815869142,580.556865226294,560.501354197717,580.142535241322,541.651367589496,536.516022075759,540.082758695941,546.432879804184,544.837976278917,550.534725715805,554.156920550132,553.500141034922,533.660980320081,509.122117463777,503.892601489894,502.138803570975,512.573042798298,558.480813166956,598.456975907335,587.750958844234,558.178645400963,549.896303586191,600.155037425238,664.723655227799,681.218807742745,695.364445915796,731.869736485585,789.071346731008,780.947626122142,809.177297459343,809.650677734578,773.218680653054,769.125553477379,797.195025915519,782.012283436279,771.228564879583,818.663486677761,793.203492390783,746.428637837157,792.849205200775,870.103838748076,945.654496094377,936.376235076764,912.0616331023,856.409743342092,778.434229114671,695.564478259726,675.367625140852,673.960758878641,535.945854452988,431.002521307463,345.59773518937,336.174452694935,453.220144920361,542.544263578327,631.828187396768,722.286320775018,770.392023980039,757.020790562329,738.206154053062,764.000061201392,846.006959367569,933.587081532332,985.659121047613,1042.44640697727,1117.69728628869,1142.37966604151,1080.20119457925,1011.38072059436,969.72613406645,967.362840595319,893.40372645921,790.488684046717,832.790143331178,890.200861652558,880.955852571599,855.834068576194,811.14593338994,772.446294795157
0,0,0,0,0,0,0,0,0,0,0,0,0,0,0,0,0,0,0,0,0,0,0,0,0,0,0,0,0,0,0,0,0,0,0,0,0,1.83736384521495e-06,0.00793267382618046,-0.470559048842018,4.69150614276769,17.9132639499681,30.8011961004719,71.8920290601151,143.94231405048,130.151934245903,90.555337873969,103.375845054091,104.050034113843,97.0048285476957,91.1249368164363,98.6094322130229,98.4173702482155,131.108986693783,193.120159117219,249.657865179289,310.652198968589,275.954716586156,162.881015432891,217.361303457896,341.05431687869,371.148222144689,410.555689839048,461.952264354642,533.724855124877,566.686235567995,586.82512262176,593.206289830195,550.694937730369,544.441307839431,524.991643164284,546.95612748311,603.91893145017,658.739839995817,739.178590385211,728.195092514601,642.562220415941,584.610401181783,567.521852407701,498.468511106044,477.291557524292,478.373394809774,500.46417652915,511.063332607447,533.774038218526,541.033727396519,612.222096440453,668.070373032595,639.046127973162,609.69075046301,567.363764191464,575.601281797925,600.372680634377,628.729627183084,617.616707814183,627.019740410439,618.834631011778,611.526799751606,658.037914459295,758.02871385721,874.205318617063,956.858054879322,976.71888828482,902.927322636931,807.55811976397,782.979899361704,751.797268733459,815.714867161918,744.179443064657,672.324364958783,615.230239942617,593.361708534582,585.889733907593,562.225369362454,559.261539885364,584.7076321884,566.191546508582,535.879626153754,539.303060414464,538.273563312985,527.048199921658,542.991037141293,534.778399274347,507.247046759329,508.839734110498,512.766486908311,560.940200734994,581.741501872145,570.913942130063,531.541126096267,540.88106107957,583.624450595532,641.685349186205,712.115689554897,754.70035946379,740.361109430059,729.707811605386,743.445507127093,772.9517591147,835.284207950815,866.051689171083,797.966994941055,851.94424260209,897.939027432373,833.58797086213,855.589880186422,887.761371388488,862.589833828364,779.504778767359,830.336706776778,887.099268556268,957.154864124585,924.211051013356,879.608177818583,832.09269724687,785.989739742552,778.043203343168,746.941183872399,712.441895134956,599.097259063955,499.84431452516,407.930102685087,327.997124600553,448.591338652083,557.347200141461,657.545728457349,728.749617489199,780.92243402778,800.604303401011,783.814424683937,776.095965331848,846.897196853203,915.031749176237,981.464980590676,1044.98877203056,1096.87222328739,1158.9922430969,1137.24554850354,1076.22946077496,1027.98281292543,1000.65010011804,905.05916994174,828.360995990999,919.184475250354,961.357250479405,939.192184592495,905.666945925691,844.54260585017,825.528742961854
0,0,0,0,0,0,0,0,0,0,0,0,0,0,0,0,0,0,0,0,0,0,0,0,0,0,0,0,0,0,0,0,0,0,0,0,0,0,-0.0349415783669104,-0.272974917707363,6.41723880424178,56.0339569272338,121.208961873691,167.213258543131,205.380667577412,193.671037186797,168.579283510257,192.007130608392,225.533172979035,245.962246805219,237.523508433338,204.973805369847,192.339722921218,163.719536689134,136.44515739394,123.008222338525,181.208990486154,185.950824733981,136.762949321977,234.547169384235,368.820230772708,460.619969677833,493.048439378664,468.067771620529,422.502235261375,436.972242591725,473.342149545622,583.162133743081,602.564413577939,562.434722102956,532.835598464499,543.56754574124,601.335771794618,654.532897150232,742.189483965318,775.590058885203,716.046496261699,645.228712489493,556.188047253508,554.169415088419,544.634875480907,498.462969045601,474.378022505967,476.747681229607,492.976033300916,534.922413165778,584.035527340847,625.259946833626,602.134470223358,549.081474536159,534.412711688025,565.571987127943,563.048706962235,563.350263792596,573.271356276944,583.96018176362,603.497323685097,706.460137622685,742.323332709679,742.042797455294,829.613948065868,972.579162954157,973.521541990226,907.331554268919,808.347590135473,801.282084520182,820.332749900944,849.657495934762,748.250388957542,680.758482853133,627.728298956989,599.540346887492,620.437455337873,603.74621715463,625.061031331624,697.899757008201,635.93485095701,539.117903472082,531.253986027543,538.191212890874,544.235221373663,545.136155898486,529.299662587135,510.504549543269,507.471191967293,509.615956152991,564.523000296561,579.885122668292,528.182445641227,542.677503015955,597.402084181497,647.055216666806,695.819786139998,742.51911994406,791.396413035567,764.091183993458,759.015294567145,794.067784014217,822.549403925343,848.915941072534,857.070114965581,818.5207704186,895.943733987255,945.011280766412,891.628632469419,908.795458831464,914.968154331452,847.851497712656,802.050545078909,894.647361422418,974.145514636033,987.887522676342,919.363763397954,865.801257651239,863.558931874317,876.974022135249,827.792193153242,775.945852518166,728.819018623378,612.106131080699,484.204498648861,390.137711011758,329.765939519607,457.012081935645,590.298499972942,675.800467622498,708.940801911715,751.776499769874,793.494876190705,809.035016370328,792.802017467724,857.99119848562,919.209867119354,984.849599311981,1032.99044861497,1062.57961922947,1122.80032295476,1132.29651776346,1115.01043064613,1094.42194450306,1027.59613462308,911.961369610651,880.161250927868,988.50157562205,1021.72508073993,983.16900148391,933.973764686592,880.995712108711,863.776921214342
0,0,0,0,0,0,0,0,0,0,0,0,0,0,0,0,0,0,0,0,0,0,0,0,0,0,0,0,0,0,0,0,0,0,0,0,0,0,4.3361559508637e-05,-0.851315427112964,5.39811545786883,57.6335520315602,141.567599764631,191.625569339346,158.887413364692,130.835916125902,122.472523844482,107.712388483673,165.033740155811,188.84343708061,255.121365158266,311.890488434718,308.116079328845,293.382346353818,278.599222991347,227.817615275247,154.964505595141,168.120855543375,215.609450504229,268.712831321672,393.463801849105,459.79586768404,408.011393994226,364.257157768434,309.213774886788,323.95101389758,403.300020104289,528.42038682381,617.749929472203,606.28011020856,568.928317117156,534.408820946496,586.532516795016,654.140468456096,708.922090945981,773.508165838904,756.787623619471,654.251998551917,615.635814629275,636.133748394462,642.589391836857,572.689867600919,510.600696030527,485.013566239967,481.287903815016,507.770854491602,559.787813370581,604.437501701391,568.165827673711,520.604587881729,566.03230417732,650.298562064106,626.144650580987,600.944555286914,604.235347597443,633.71086487512,659.230695623085,741.856277572533,855.093095921523,869.700969307082,859.379772910086,967.849984297381,969.111625513621,886.874544972879,842.297688988057,894.821815892162,849.475863215458,788.345669155309,700.236254219038,641.61746338036,622.085178197116,609.936998934246,589.949665515457,585.79018318742,619.183898810203,692.379317966421,616.317476158816,545.508214378818,538.518902620153,538.897482666898,542.714922881093,546.085320831536,526.493146695174,515.380575984482,512.437045357738,508.264919178062,542.003800311695,569.476847681874,524.801935736192,552.189621688001,587.104713137404,662.58524457886,699.539827431493,727.092395249364,740.367695753327,754.433696769864,752.28670778298,802.285916152187,833.083395855709,847.442393716173,869.198073553666,889.682282113025,993.273629914893,989.912072849269,950.319304319241,950.630855539149,914.721238891818,865.460037968582,829.208990375852,882.517911502949,948.239776555615,980.222377570189,919.200348788249,883.306185394348,875.794912606709,881.004143037217,809.440727691576,746.880981162412,701.910390918825,604.31748583492,519.113755664593,425.097989908211,328.869509889641,438.205200425324,516.723505187751,583.155005882765,626.665150828277,701.466741923258,804.664616079986,816.00479914808,796.632869970855,839.637882965275,892.053779889277,941.043441160977,999.724090234464,1070.4888183563,1135.33530370401,1147.74881591827,1128.12283462132,1094.94798924464,1047.42417004173,1029.29422470628,985.221246733238,1047.61678709361,1046.94106575639,1010.79811128807,960.170603278429,911.396728620866,916.256310642511
0,0,0,0,0,0,0,0,0,0,0,0,0,0,0,0,0,0,0,0,0,0,0,0,0,0,0,0,0,0,0,0,0,0,0,0,0,0,0.000141870111124802,-0.245795313764301,1.39421907721619,12.0446874646638,49.3538654394499,102.37685003827,81.4432619668201,40.7459424389876,33.1765169645609,30.4296830515496,69.316102825671,113.951041147201,188.066613475665,186.147768281096,213.929674631146,183.425108446345,175.298472004257,253.826645323127,297.169713718697,300.123575253337,337.569514350101,391.683699269741,435.242295744634,419.163528840839,327.305456712892,255.131301415829,266.830387943103,395.877408567573,457.232607123221,533.058219701272,598.039678995016,575.432728448168,514.048679271158,443.548814749618,460.616742813285,524.650308347731,606.263612639649,701.552048323795,774.490535004557,753.636535232086,736.146639689234,719.313545055906,648.717259320948,569.371702295223,582.155956062149,549.975520222392,492.810328970799,476.838132194531,488.812744597197,549.376297151007,539.935500000046,517.355270046259,589.623430664972,643.454293576731,622.8367977365,647.924050877548,664.688554553731,694.859954939747,733.556370699211,783.340272844414,901.044610646216,952.157113879223,996.75409179695,999.272294334494,1008.14797237847,966.484870563427,913.790407053272,909.964176477617,852.4401681956,792.873418444128,697.222664147913,651.359652269552,623.912738368539,600.728175118059,585.829244588647,582.163697058654,589.765696027268,603.570742715342,590.686592816131,599.716371984653,581.444436792208,565.230932580418,550.746618860601,562.026395444394,550.863609341807,519.984774722266,515.73948247046,511.265159717734,519.132982858314,528.934012190759,527.816670351512,560.133813499079,605.264185188613,647.970721891793,639.872915659485,688.666507481132,681.869007592356,666.441115484964,699.325316281007,735.926574405228,753.5728277954,824.781603423316,876.607332468275,936.597906568944,978.793573150413,975.059742172146,956.564304477214,948.615538011487,942.079034005758,923.691068692953,913.437222442057,921.475933231656,955.499324907617,946.2459025871,889.399337984859,870.987618495825,843.973103680208,810.694205707098,768.050155556919,738.488734136361,712.948445892888,648.548592556426,547.672930138287,420.219329069394,324.753611017119,383.188909238964,438.493640683751,507.334015530503,603.351650398532,690.401424529759,813.105099818593,804.947470417552,795.568755463925,826.804960004956,871.99605732542,931.181520229071,996.035566850801,1072.26949328527,1135.59857538553,1168.48654058872,1132.40426161471,1104.97353729243,1142.63110670373,1112.19987746406,1075.79562710041,1077.05134701114,1073.57073242221,1027.37556796141,966.544612090358,953.623168435523,975.425242983255
0,0,0,0,0,0,0,0,0,0,0,0,0,0,0,0,0,0,0,0,0,0,0,0,0,0,0,0,0,0,0,0,0,0,0,0,0,0,9.35588863071694e-10,-0.704923784112433,5.64021053572918,31.4586297168555,33.0245050343722,25.1598303904744,22.5161212636218,65.4971694848345,119.625740072954,98.9297017709847,47.1299708807097,56.9776762572944,78.3223488909273,69.0238216349481,80.5806650991797,73.5610099009626,72.8672598205002,120.430784084456,225.712433349278,236.694696761038,301.749221233825,351.026097960438,343.519368016455,284.823857750943,231.889004787038,217.395917134982,334.341664687614,423.955074519082,424.788332105515,479.380788512895,544.246684253875,535.621927564621,474.800133717259,372.748382024523,328.408122050181,394.517911364116,523.60165196889,634.801715623319,696.131637605001,739.441064021689,795.492470588461,757.735522773799,664.940683621921,665.214125168089,667.952625988724,596.078574896332,530.547507819588,495.12191511559,508.537278744167,522.06294653973,511.581845881357,528.926276138906,564.89927722435,567.076802944185,573.049248974311,606.509276040474,651.084592544251,680.848004360749,720.695600889672,808.570355788212,861.954900742945,913.118858245658,1024.16501342358,1000.48254448285,1018.54835683917,987.397634959906,889.529545570319,867.981617237361,841.030395022468,809.785180431071,715.444128668476,642.498982623675,611.431695245192,594.618123829732,584.556719838333,597.65176150086,591.95470054703,592.6427388642,594.43101210418,608.403801879562,632.824392622848,622.053546329895,580.212603499024,570.130147717425,565.518180260137,567.285128418818,548.351164489495,527.934642656436,516.016481442952,515.771369288786,526.640216593457,550.470849213621,596.589737080399,608.730440833647,591.863214384618,643.820516551189,631.395046989319,599.671054637817,645.659799231793,660.282230702207,709.848525865466,779.633652767844,826.776192241831,892.403785806815,895.984867582651,896.250459124541,900.830905486313,888.224709478616,879.614104805039,892.996964399149,904.437755885658,891.3106271281,863.215386716879,839.37811641698,805.911406206834,837.950282609725,816.772471434678,770.154890788207,733.831461159344,697.925042017471,650.285047267365,588.083740758513,520.813320482478,406.416268290353,327.067071588748,394.196314444972,471.964122477768,583.135149550037,668.290930635888,720.620364467902,777.486747709712,789.029231613657,798.483797757997,840.723363205493,892.829976678174,953.251277597418,1004.12917727036,1059.66404500481,1111.97059120336,1136.41327433158,1120.92390057908,1152.8094418016,1167.00633784174,1142.61523464599,1135.29851152365,1097.801810048,1083.39165303742,1035.67200670696,1001.49475384475,990.384122586031,1015.34359059408
0,0,0,0,0,0,0,0,0,0,0,0,0,0,0,0,0,0,0,0,0,0,0,0,0,0,0,0,0,0,0,0,0,0,0,0,0,0,0.000290629477582877,-0.773041864795696,4.66013392231616,46.4120444259186,112.299619223555,106.681810073524,55.9334890812949,70.9590309390423,179.068621194671,185.724302827139,145.416358773912,88.0094340185319,57.2795803686186,114.35104278922,157.207530127184,163.686506915741,178.206405951034,121.551082068652,95.7253115867824,132.167842341282,170.700244278251,254.004304266154,289.707874586248,176.245164476838,224.779019990496,331.162381771223,380.170426887194,326.375224259566,334.73632878109,453.857103798054,440.393329467648,398.824431429805,407.073444697698,354.510097055589,274.861150825488,349.334275858291,451.940736785208,581.54933011814,628.664119864555,679.638875029861,764.497593376809,799.521362902399,760.929040979978,712.988539268866,620.874589089299,565.6357019457,537.183134425392,529.415129982868,533.170246391143,507.353810352409,513.618163403426,516.42329230502,517.230997685239,531.514701920809,608.054306872859,637.651379209641,653.483137380971,668.662049650469,699.507644083943,742.599501149129,775.279842467013,875.042843282024,987.872472343236,974.144918654894,957.199921958289,919.395452486968,814.802707940438,807.868028900682,773.367771986457,801.965817180888,711.09777728105,645.178476368927,630.896973184802,619.764447781201,596.318355239852,616.163907976778,618.079963188031,631.276605675202,609.385882663112,602.046670380404,602.6427960722,605.809366261352,575.82419822021,576.489639612681,608.563094283273,624.784153435931,587.974143553693,565.06401123995,531.685281476958,513.813556869436,513.865614502472,539.061041254873,570.09371143293,564.010568102477,563.381661604793,611.42539830409,631.744296532062,572.959244435332,598.725884031742,609.031977651427,642.341500865151,701.32765562379,776.8755863196,841.619144747181,849.703151066862,841.395024937455,832.014649993957,823.174272671756,852.470737864999,833.731391835235,832.48825602198,840.218686025795,799.502916514993,760.955861717542,729.121177826832,790.703534765866,789.894283931737,732.833836511509,711.24464908959,676.212867846247,636.684801366714,578.298640096938,516.599541538423,436.649728604246,336.852531733598,378.134821408785,504.958125781351,592.917097419123,656.915220163243,702.854575630689,752.602354116186,794.060734441952,803.979871690425,815.351269771794,874.71410718294,948.822351241682,1012.02051645688,1045.72231993224,1077.25950004518,1091.85335854001,1118.72948656224,1148.98128483289,1155.21391990536,1162.06177378421,1133.13589890292,1116.48205318793,1100.33901051033,1086.0140201958,1054.67281086459,1034.59462138736,1032.44090335222
0,0,0,0,0,0,0,0,0,0,0,0,0,0,0,0,0,0,0,0,0,0,0,0,0,0,0,0,0,0,0,0,0,0,0,0,0,0,-0.00215404526213375,-0.877748285139756,7.49561112749281,43.3945597829022,125.598233235871,162.177443567444,99.0349436908015,57.4988665245908,110.223855895288,152.044773090344,162.369910874066,166.988121892957,123.628127798217,111.598557570111,219.269339240836,296.468476582524,274.492875530321,191.983092286997,156.990469770023,164.759439845441,114.325629314875,146.55482139991,157.799385692444,165.735779685382,280.934657411592,326.660516543555,247.465143065984,255.719734655301,376.425777866487,419.914100342962,346.413498533215,276.002706600312,264.930465979656,261.651336577752,296.468166396622,326.036578913951,393.256526872959,488.433129361068,613.026153756719,651.411188458511,689.08896419074,729.458776549793,716.171325685377,685.550837591093,630.560958221181,563.196097046917,538.598344419201,577.150223249667,600.551366214436,536.229078371602,511.988265507752,503.866259881267,505.510065198346,531.08695100353,616.266351838762,609.821759958804,582.014971248583,598.773056401904,640.823515621631,684.036511357381,762.311731486308,843.79204276547,923.724953322706,939.112316705228,865.18417285572,878.004895104601,770.688652414458,715.126310306397,706.24242452782,772.421025457995,693.2936515312,650.09075333684,619.027033717692,620.744648245827,612.866897911129,630.203359636691,661.673788716284,651.311185051454,627.012311234552,635.657123933196,616.545611699483,634.287779147747,623.723744545489,609.35295880509,649.718794664711,655.719277184992,632.590819102795,596.467113390485,549.928722485839,520.825821068772,513.348714719458,534.344511412348,545.46040407971,534.938097516449,537.074125137148,568.521369439902,617.662585415282,575.194174522975,555.503243325917,560.227276617963,611.110187189556,706.131492595984,754.799323396096,768.341119734803,779.386901204443,781.621841759751,784.028942451198,841.344898822163,854.898732039126,786.433564786498,750.732529490565,766.33246866743,751.322368384591,699.797134443566,658.847957812579,687.454118034272,746.101299696392,724.516154257977,702.800166358403,670.627621478163,631.011730986016,590.382017302758,555.486425769088,483.240135461468,351.530398345271,418.335398834545,528.324698736951,613.622406928572,677.399856986585,727.292309011534,766.631443894192,783.176084598189,762.466345984825,763.631401951455,829.194836153643,885.615516937046,947.411601935211,995.11127853898,1026.75678708096,1048.45928992507,1092.7686864955,1143.38352542381,1185.15683340661,1177.50059598396,1159.52267612919,1171.54962167679,1159.15344773545,1136.48589428882,1115.34092414127,1083.60987688708,1070.80409645661
0,0,0,0,0,0,0,0,0,0,0,0,0,0,0,0,0,0,0,0,0,0,0,0,0,0,0,0,0,0,0,0,0,0,0,0,0,0,-0.019354070824392,-0.907542623880359,13.7873232013249,47.4664133378293,129.829415815824,196.636307942082,164.973752404755,128.312556636451,72.573525520444,93.8037590647303,150.78444787192,210.430550505731,205.519380833235,178.123378843964,244.884317017276,349.868645714062,261.847042506814,229.057145272011,259.461538102122,270.938666912464,211.934679976119,132.513778001483,124.597318520546,158.807963338996,251.830507297311,232.02833615754,210.338557217199,325.262779054878,390.559038915516,288.761560368284,220.186508344873,233.593106910262,269.514987064852,295.04738318017,364.707907356696,431.815504752368,423.09135262797,493.405409979893,538.862478801109,608.563287539726,599.447851903253,562.875058713017,572.898938773117,686.823988217892,681.810101787853,608.223785218068,587.157692313684,635.836583273388,659.80246270072,594.120632577702,586.019986142242,589.660848864088,571.36954640378,521.002210076313,538.848800170269,550.694807102707,580.237509078811,630.443757748327,688.608720194976,724.307079640955,785.774848702603,818.066427690611,832.338073714692,869.595729095181,795.286367393435,838.759856860958,783.037548014564,690.151121962414,655.488514056171,703.388021049954,666.307375894231,642.044320204814,628.391861923188,585.131168523356,634.086302278965,655.85811801378,663.490161714536,680.181500400078,664.206933280864,666.173202387201,659.957961554258,679.15551874878,672.547932570536,663.149704384768,657.543398175741,657.239545988794,638.654841305526,615.362852018537,595.201366036028,540.626680379827,521.090183743142,515.322207944285,525.136233546052,527.924657534135,532.162453916926,560.92606560233,556.891209302815,541.736723033156,539.875451873473,590.330179820527,637.526963794057,698.092399047051,741.318662011455,697.759039548076,732.570965759016,743.207271519169,790.801395840743,877.505810339496,854.714499529579,773.082251153892,704.477792882741,666.337165227214,651.102614686713,614.580893312414,582.901655291785,618.578599548381,701.922026209164,736.488321014047,700.782877631799,653.778610876528,592.566876733608,572.631620541322,537.396622278663,424.871174833188,343.684102895282,459.307396925689,548.580402102126,621.684321780332,703.610677494405,736.115964422103,718.019009670194,696.818353111074,684.320902788062,725.608533960694,788.186217032215,863.800635696159,928.073994490831,955.426924293014,979.618225893824,1010.96417553303,1071.91110369481,1175.30442192725,1193.60770165311,1183.96107928736,1213.67633350425,1233.50444099538,1216.32889675621,1187.41360274151,1145.76103071576,1127.57891911893,1108.93542471919
