78.9839482738403,83.9122164781094,89.0718365830152,94.4675406403927,100.103690619058,105.984239451548,112.112691630935,118.492063550916,125.124843795613,132.012953597992,139.157707697365,146.559775836981,154.219145151958,162.1350837058,170.306105440185,178.72993680752,187.403485358881,196.322810561114,205.483097116159,214.878631052788,224.502778856017,234.347969892239,244.405682378729,254.666433134456,265.119771335173,275.754276479508,286.557560754318,297.516275966919,308.616125189108,319.841879233172,331.17739805353,342.605657139382,354.108778933955,365.668069284786,377.264058897176,388.876549729807,400.484666237621,412.066911332818,423.601226900442,435.065058670753,446.435425216802,457.688990812486,468.802141854337,479.751066519484,490.511837303114,501.060496051418,511.373141080932,521.42601595241,531.195599447331,540.65869627794,549.79252804758,558.574823967248,566.983910826828,574.998801715524,582.599282985734,589.765998957967,596.48053387151,602.725490596367,608.484565636443,613.742619972073,618.485745311508,622.701325345963,626.378091630898,629.506173747334,632.077143430863,634.084052392327,635.521463592784,636.385475775794,636.673741102176,636.385475775735,635.521463592665,634.084052392141,632.077143430601,629.506173746985,626.378091630444,622.701325345385,618.485745310778,613.742619971158,608.484565635301,602.725490594946,596.480533869747,589.765998955783,582.599282983033,574.998801712188,566.983910822712,558.574823962176,549.792528041336,540.658696270262,531.195599437897,521.42601594083,511.373141066733,501.060496034023,490.511837281822,479.751066493449,468.802141822531,457.688990773668,446.43542516947,435.065058613093,423.601226830265,412.066911247489,400.484666133964,388.876549604004,377.264058744639,365.668069100007,354.10877871033,342.605656868996,331.177397726915,319.841878839003,308.616124713859,297.516275394451,286.557560065391,275.754275651209,265.119770340242,254.666431940495,244.40568094727,234.347968177652,224.502776804233,214.878628599802,205.483094186281,196.322807064922,187.403481190839,178.729931843199,170.306099533028,162.135076683362,154.219136811536,146.559765940548,139.157695965694,132.012939703861,125.124827355941,118.492044117682,112.112668680705,105.984212373402,100.103658700693,94.4675030521476,89.0717923595221,83.9121644972446,78.983887232607,74.2818965462754,69.8008341580431,65.5350841073993,61.478808253329,57.6259805726702,53.9704201512059,50.5058227763623,47.2257910547955,44.1238629922008,41.1935389862707,38.4283071967909,35.8216672693313,33.367152400794,31.0583497461934,28.8889191764022,26.8526104061987,24.9432785207509,23.1548979366783,21.481574841027,19.9175581578865,18.4572490979795,17.0952093513783,15.826167987574,14.6450271304677,13.5468664785011,12.5269467421324,11.5807120722285,10.703791553727,9.89199983916469,9.14133699641773,8.44798764429203,7.80831944848914,7.21888104899744,6.67639948816014,6.17777720659707,5.72008867184429,5.30057670206477,4.91664854451106,4.56587176562201
79.0901370873854,84.0251159925746,89.1917618245616,94.5948130786992,100.238637663389,106.127193893777,112.263991034918,118.652049587858,125.293861525363,132.191350696492,139.345833630807,146.75798098353,154.427779872259,162.354497363841,170.536645376422,178.97194726658,187.657306374475,196.58877680123,205.76153669191,215.169864294716,224.807117061969,234.665714051319,244.737121876139,255.011844442385,265.479416695182,276.128402582143,286.946397421946,297.920034846004,309.03499845834,320.276038334034,331.626992450002,343.07081311359,354.589598424598,366.164628775197,377.776408359833,389.404711634012,401.028634626965,412.626650978838,424.176672538686,435.656114325178,447.041963618123,458.310852915738,469.439136460494,480.402970005553,491.178393464606,501.741416060623,512.068103563805,522.134667186352,531.917553681482,541.393536176989,550.539805259438,559.334059814242,567.754597119412,575.780401686795,583.391232344364,590.567707056478,597.291384986139,603.544845314107,609.311762344224,614.576976442392,619.326560378287,623.547880663809,627.229653510454,630.36199505894,632.936465568297,634.946107288056,636.385475775793,637.250664462822,637.539322312969,637.250664462764,636.385475775674,634.94610728787,632.936465568036,630.361995058591,627.229653510001,623.54788066323,619.326560377557,614.576976441475,609.31176234308,603.544845312685,597.291384984373,590.567707054291,583.391232341659,575.780401683454,567.754597115291,559.334059809164,550.539805253186,541.3935361693,531.917553672035,522.134667174757,512.068103549587,501.741416043203,491.178393443286,480.402969979482,469.439136428646,458.310852876867,447.041963570726,435.656114267438,424.176672468413,412.626650893392,401.028634523167,389.404711508038,377.776408207088,366.164628590167,354.589598200668,343.070812842836,331.626992122942,320.276037939328,309.034997982445,297.920034272757,286.946396732082,276.128401752716,265.479415698897,255.011843246798,244.73712044273,234.665712334397,224.807115007391,215.16986183839,205.761533758043,196.588773300277,187.657302200758,178.971942295498,170.536639461222,162.35449033184,154.427771520479,146.75797107362,139.345821883161,132.191336783441,125.293845063305,118.652030128162,112.263968053437,106.127166778759,100.238605701561,94.5947754392711,89.1917175408505,84.0250639409288,79.0900759630336,74.3816826922814,69.8945185522276,65.6229599352469,61.5611607506723,57.7030867698548,54.0425486621796,50.5732336307824,47.2887355711471,44.1825836898313,41.2482695341796,38.4792723969661,35.8690830723886,33.4112259516638,31.0992794575933,28.9268948278529,26.8878132663621,24.9758814909104,23.1850657132295,21.5094640949061,19.9433177289319,18.4810202022966,17.1171257998605,15.846356413819,14.6636072264214,13.5639512362564,12.5426427004089,11.5951195661588,10.7170049666766,9.90410785541501,9.15242285364163,8.45812938485212,7.81759016868828,7.22734914550689,6.68412890094568,6.18482765775451,5.72651589984422,5.30643269099146,4.92198174796152,4.57072732500861
79.125565468601,84.0627833033205,89.2317731688176,94.6372757102329,100.283660817626,106.174888601974,112.314469920434,118.705426644412,125.350251877245,132.250870340816,139.408599161978,146.824109300217,154.49738786729,162.427701597521,170.613561733935,179.052690600227,187.741990131651,196.677512639128,205.854434080118,215.267030106944,224.9086551583,234.771724852468,244.847701931346,255.127085992648,265.599407233653,276.2532244136,287.07612722334,298.054743230154,309.174749542923,320.420889318051,331.776993199977,343.226005761749,354.750016981334,366.330298758082,377.947346441469,389.580925310963,401.210121911958,412.813400118401,424.368661758266,435.853311603738,447.244326494085,458.51832832602,469.651660614272,480.620468294207,491.400780409169,501.968595297853,512.299967871842,522.371098550701,532.158423401878,541.638705015466,550.789123629722,559.587368012366,568.011725595189,576.041171355613,583.65545493848,590.835185514797,597.561913881219,603.818211314931,609.587744713037,614.855347563731,619.607086318104,623.830321756421,627.513764970885,630.647527618048,633.223166127949,635.233719593488,636.673741102175,637.539322312969,637.828111123065,637.539322312911,636.673741102056,635.233719593302,633.223166127688,630.647527617699,627.513764970431,623.830321755842,619.607086317373,614.855347562815,609.587744711893,603.818211313508,597.561913879453,590.835185512609,583.655454935775,576.041171352271,568.011725591066,559.587368007285,550.789123623467,541.638705007773,532.158423392427,522.371098539101,512.299967857617,501.968595280425,491.400780387839,480.620468268125,469.651660582409,458.518328287132,447.244326446666,435.853311545973,424.368661687961,412.813400032917,401.210121808113,389.580925184931,377.947346288655,366.330298572968,354.750016757303,343.226005490873,331.776992872768,320.420888923166,309.174749066811,298.054742656647,287.076126533162,276.253223583797,265.599406236915,255.127084796519,244.847700497287,234.771723134766,224.908653102789,215.267027649504,205.85443114492,196.677509136587,187.74198595604,179.052685626891,170.613555816051,162.42769456233,154.497379511722,146.824099385812,139.408587409002,132.250856421454,125.350235407719,118.705407175887,112.314446928527,106.174861474654,100.283628841297,94.6372380537284,89.2317288650157,84.0627312280596,79.1255043165181,74.4149749149057,69.9257750124924,65.6522784503023,61.5886364853805,57.7288121514346,54.0666133098386,50.5957242997026,47.3097361101521,44.202175012038,41.2665295999128,38.4962762081988,35.8849026779599,33.4259304625215,31.1129350713073,28.9395648616502,26.8995581979431,24.9867590063192,23.1951307610666,21.5187689461919,19.951912041953,18.48895109179,17.1244379099199,15.8530919939359,14.6698062101043,13.5696513217035,12.5478794327425,11.5999264207632,10.7214134332138,9.90814752212906,9.1561214915934,8.46151303176142,7.8206832120927,7.23017440497908,6.68670770914212,6.1871799400996,5.72866025268271,5.30838645807072,4.92376109513224,4.5723473130584
79.0901370873782,84.025115992567,89.1917618245535,94.5948130786906,100.23863766338,106.127193893768,112.263991034908,118.652049587847,125.293861525351,132.19135069648,139.345833630794,146.757980983516,154.427779872245,162.354497363826,170.536645376407,178.971947266563,187.657306374458,196.588776801212,205.761536691891,215.169864294696,224.807117061948,234.665714051297,244.737121876117,255.011844442362,265.479416695157,276.128402582118,286.94639742192,297.920034845977,309.034998458312,320.276038334005,331.626992449972,343.070813113558,354.589598424566,366.164628775164,377.776408359798,389.404711633977,401.028634626928,412.626650978801,424.176672538647,435.656114325138,447.041963618082,458.310852915696,469.439136460452,480.402970005509,491.178393464561,501.741416060577,512.068103563759,522.134667186304,531.917553681434,541.39353617694,550.539805259387,559.334059814191,567.75459711936,575.780401686742,583.39123234431,590.567707056424,597.291384986084,603.544845314052,609.311762344168,614.576976442335,619.326560378231,623.547880663752,627.229653510397,630.361995058883,632.936465568239,634.946107287998,636.385475775735,637.250664462764,637.539322312911,637.250664462706,636.385475775616,634.946107287812,632.936465567978,630.361995058534,627.229653509943,623.547880663173,619.3265603775,614.576976441419,609.311762343024,603.54484531263,597.291384984319,590.567707054237,583.391232341606,575.780401683401,567.754597115239,559.334059809112,550.539805253135,541.393536169251,531.917553671987,522.134667174709,512.06810354954,501.741416043158,491.178393443241,480.402969979439,469.439136428603,458.310852876825,447.041963570685,435.656114267398,424.176672468375,412.626650893355,401.02863452313,389.404711508002,377.776408207053,366.164628590133,354.589598200635,343.070812842805,331.626992122912,320.276037939299,309.034997982416,297.92003427273,286.946396732055,276.128401752691,265.479415698872,255.011843246775,244.737120442708,234.665712334375,224.80711500737,215.16986183837,205.761533758024,196.588773300259,187.657302200741,178.971942295482,170.536639461206,162.354490331825,154.427771520465,146.757971073607,139.345821883149,132.191336783429,125.293845063293,118.652030128151,112.263968053427,106.12716677875,100.238605701552,94.5947754392625,89.1917175408424,84.0250639409212,79.0900759630265,74.3816826922747,69.8945185522213,65.622959935241,61.5611607506667,57.7030867698496,54.0425486621747,50.5732336307778,47.2887355711429,44.1825836898274,41.2482695341759,38.4792723969627,35.8690830723854,33.4112259516608,31.0992794575905,28.9268948278504,26.8878132663598,24.9758814909082,23.1850657132275,21.5094640949042,19.9433177289301,18.481020202295,17.117125799859,15.8463564138177,14.6636072264201,13.5639512362552,12.5426427004078,11.5951195661578,10.7170049666757,9.90410785541419,9.15242285364088,8.45812938485144,7.81759016868765,7.22734914550632,6.68412890094516,6.18482765775403,5.72651589984378,5.30643269099107,4.92198174796116,4.57072732500829
78.9839482738256,83.9122164780937,89.0718365829987,94.4675406403752,100.10369061904,105.984239451529,112.112691630914,118.492063550894,125.12484379559,132.012953597967,139.157707697339,146.559775836954,154.219145151929,162.13508370577,170.306105440153,178.729936807487,187.403485358846,196.322810561078,205.483097116121,214.878631052748,224.502778855975,234.347969892195,244.405682378684,254.666433134408,265.119771335123,275.754276479457,286.557560754264,297.516275966863,308.61612518905,319.841879233113,331.177398053468,342.605657139318,354.108778933889,365.668069284718,377.264058897105,388.876549729734,400.484666237546,412.066911332741,423.601226900363,435.065058670672,446.435425216718,457.688990812401,468.802141854249,479.751066519394,490.511837303022,501.060496051324,511.373141080837,521.426015952312,531.195599447232,540.658696277839,549.792528047477,558.574823967143,566.983910826721,574.998801715416,582.599282985625,589.765998957856,596.480533871398,602.725490596254,608.484565636329,613.742619971958,618.485745311392,622.701325345846,626.37809163078,629.506173747216,632.077143430744,634.084052392207,635.521463592665,636.385475775674,636.673741102056,636.385475775616,635.521463592546,634.084052392022,632.077143430483,629.506173746867,626.378091630327,622.701325345269,618.485745310662,613.742619971043,608.484565635187,602.725490594833,596.480533869636,589.765998955672,582.599282982924,574.99880171208,566.983910822606,558.574823962072,549.792528041233,540.65869627016,531.195599437798,521.426015940733,511.373141066637,501.060496033929,490.51183728173,479.751066493359,468.802141822444,457.688990773583,446.435425169386,435.065058613011,423.601226830185,412.066911247411,400.484666133889,388.876549603931,377.264058744568,365.668069099939,354.108778710263,342.605656868932,331.177397726853,319.841878838943,308.616124713801,297.516275394395,286.557560065337,275.754275651158,265.119770340193,254.666431940447,244.405680947224,234.347968177608,224.502776804191,214.878628599762,205.483094186242,196.322807064886,187.403481190804,178.729931843165,170.306099532996,162.135076683332,154.219136811507,146.55976594052,139.157695965668,132.012939703836,125.124827355918,118.49204411766,112.112668680684,105.984212373382,100.103658700674,94.4675030521301,89.0717923595056,83.912164497229,78.9838872325923,74.2818965462616,69.8008341580302,65.5350841073871,61.4788082533177,57.6259805726596,53.970420151196,50.505822776353,47.2257910547868,44.1238629921928,41.1935389862632,38.4283071967839,35.8216672693247,33.3671524007879,31.0583497461878,28.888919176397,26.8526104061939,24.9432785207464,23.1548979366742,21.4815748410232,19.917558157883,18.4572490979762,17.0952093513753,15.8261679875712,14.6450271304652,13.5468664784987,12.5269467421302,11.5807120722266,10.7037915537252,9.89199983916302,9.1413369964162,8.44798764429063,7.80831944848787,7.21888104899628,6.67639948815907,6.17777720659609,5.7200886718434,5.30057670206396,4.91664854451032,4.56587176562134
78.8072875820419,83.7243915494442,88.8723233251833,94.2558042413553,99.8791863854043,105.746413735103,111.860982844632,118.225903274511,124.843657971355,131.71616381587,138.84473256903,146.230032456881,153.872050643685,161.770056851037,169.92256838705,178.327316854508,186.981216809955,195.880336646912,205.019871975637,214.394121769031,223.996467539322,233.819355803014,243.854284082176,254.09179067847,264.521448442391,275.131862743966,285.910673832743,296.844563754325,307.919267968011,319.119591785481,330.429431723953,341.83180183905,353.308865072868,364.841969621681,376.411690295496,387.997874808565,399.57969490618,411.135702198902,422.643888541054,434.081750756142,445.42635947812,456.654431844398,467.74240774451,478.666529297624,489.402923203025,499.927685580432,510.216968891983,520.247070515008,529.994522514705,539.43618214869,548.549322621276,557.311723594521,565.701760955648,573.698495336493,581.281758880377,588.432239755136,595.131563918145,601.362373649938,607.108402387497,612.354545406285,617.08692592166,621.292956205151,624.961393339152,628.082389264611,630.647534810058,632.649897426622,634.084052392141,634.94610728787,635.233719593302,634.946107287812,634.084052392022,632.649897426437,630.647534809797,628.082389264263,624.961393338701,621.292956204574,617.086925920932,612.354545405372,607.108402386357,601.362373648521,595.131563916386,588.432239752957,581.281758877682,573.698495333164,565.701760951541,557.311723589461,548.549322615046,539.436182141029,529.994522505292,520.247070503454,510.216968877816,499.927685563075,489.402923181782,478.666529271649,467.742407712777,456.654431805668,445.426359430894,434.081750698612,422.643888471036,411.135702113765,399.579694802758,387.997874683047,376.411690143305,364.841969437321,353.308864849749,341.831801569277,330.429431398077,319.119591392204,307.919267493839,296.844563183154,285.910673145377,275.131861917544,264.521447449715,254.091789487214,243.854282653959,233.819354092311,223.996465492186,214.394119321602,205.019869052396,195.880333158639,186.981212651355,178.327311901433,169.922562493275,161.770049844506,153.872042322156,146.230022582866,138.844720863935,131.716149953214,124.843641568924,118.2258838853,111.860959946393,105.746386718298,99.8791545393452,94.2557667382606,88.8722792018718,83.7243396863341,78.8072266790881,74.1158876325602,69.6449764049067,65.3888897577153,61.3418027753856,57.4977030857879,53.8504237766199,50.3936749165359,47.121073604507,44.0261724848868,41.1024866792215,38.3435190988735,35.7427841149701,33.2938295739657,30.9902571581927,28.8257411011154,26.7940452765759,24.8890386901059,23.1047094083613,21.4351769699186,19.8747033270491,18.4177023736752,17.0587481195275,15.7925815745829,14.6141164112001,13.5184434740103,12.5008342096066,11.5567430894343,10.6818091000697,9.87185637531311,9.12289404427454,8.43111536892163,7.79289624345301,7.20479312638457,6.66354047444386,6.16604774529711,5.70939603382614,5.29083440416711,4.90777597705686,4.55779382923994
78.5606344841927,83.4621509794738,88.5937635470839,93.9601785522538,99.565734286087,105.414362223744,111.509547835149,117.85429114036,124.451067214925,131.301786862938,138.407757687024,145.769645794919,153.387438391573,161.260407513603,169.387075169331,177.765180152476,186.391646800596,195.262555970607,204.37311850293,213.717651443014,223.289557284032,233.081306487421,243.08442352854,253.289476703121,263.686071916259,274.262850659543,285.007492363564,295.906721292526,306.946318125053,318.111136340768,329.385123505758,340.751347521959,352.192027875859,363.688571890908,375.221615955961,386.771071669053,398.316176802111,409.835550958193,421.307255758576,432.708859362989,444.017505092654,455.209983892853,466.262810339878,477.152301866602,487.854660851897,498.346059192011,508.602724947003,518.601030632733,528.317582708958,537.729311796976,546.813563146209,555.548186858328,563.911627370104,571.883011692246,579.442235901217,586.570049384352,593.248136345684,599.45919409061,605.187007621952,610.416520097927,615.133898724011,619.32659567548,622.983403675354,626.094505883434,628.651519785755,630.647534809982,632.077143430601,632.936465568036,633.223166127688,632.936465567978,632.077143430483,630.647534809797,628.651519785495,626.094505883087,622.983403674904,619.326595674905,615.133898723286,610.416520097017,605.187007620817,599.459194089197,593.24813634393,586.57004938218,579.442235898531,571.883011688928,563.911627366011,555.548186853284,546.813563139999,537.729311789339,528.317582699575,518.601030621216,508.602724932881,498.34605917471,487.854660830721,477.152301840709,466.262810308246,455.209983854246,444.017505045578,432.708859305641,421.30725568878,409.835550873327,398.316176699017,386.771071543933,375.221615804252,363.688571707132,352.192027653448,340.751347253042,329.385123180915,318.111135948738,306.946317652384,295.906720723166,285.007491678377,274.26284983574,263.68607092673,253.289475515641,243.084422104851,233.081304782141,223.289555243386,213.717649003343,204.373115588956,195.262552493393,186.391642655179,177.765175215102,169.387069294239,161.260400529283,153.387430096424,145.769635952205,138.407746019035,131.301773044228,124.451050864491,117.854271812614,111.509525009498,105.414335292584,99.5657025409816,93.9601411680459,88.5937195636455,83.4620992807724,78.5605737743044,73.884106513503,69.4273683040691,65.1847736701436,61.1505161614079,57.3186024652607,53.6828852188286,50.2370944301711,46.9748674323834,43.8897773082679,40.9753597367682,38.2251382253517,35.6326477049221,33.1914564755919,30.8951865026893,28.7375320726834,26.7122768282564,24.8133092105075,23.0346363442298,21.3703964093649,19.8148695480899,18.3624873625703,17.0078410632047,15.7456883312384,14.57095896295,13.4787593652453,12.4643759744746,11.5232776716422,10.6511172679608,9.84373213494118,9.09714405295903,8.40755835153702,7.77136241347533,7.18512361349322,6.64558676025811,6.14967110861419,5.6944670065224,5.27723223872689,4.89538812650461,4.5465154400715
78.2446572031635,83.1262052200355,88.2369119119111,93.5814644705773,99.1641835132048,104.988984498365,111.05933869639,117.378233905441,123.948135117758,130.770945352938,137.847966886511,145.179863112531,152.766621288075,160.607516415438,168.701076524189,177.045049620065,185.636372570683,194.471142199309,203.544588857107,212.851052741535,222.383963223606,232.135821439635,242.098186393751,252.261664805874,262.615904926003,273.149594519596,283.850463210493,294.70528934743,305.699911537678,316.819244966859,328.047302597692,339.367221312447,350.761293034334,362.211000832231,373.697059981162,385.19946391808,396.697534998963,408.169979929295,419.594949705967,430.950103874655,442.212678873291,453.359560199426,464.367358107533,475.212486511813,485.871244741193,496.319901766158,506.534782492195,516.492355692089,526.169323129452,535.542709408817,544.589952073675,553.288991463029,561.618359829696,569.557269219665,577.085697611555,584.18447281852,590.835353662024,597.021107937586,602.725586706934,607.933794468935,612.631954783026,616.807570943554,620.449481331299,623.547909099268,626.094505883346,628.082389264447,629.506173746985,630.361995058591,630.647527617699,630.361995058533,629.506173746867,628.082389264263,626.094505883087,623.547909098923,620.449481330851,616.807570942981,612.631954782304,607.933794468028,602.725586705802,597.021107936179,590.835353660278,584.184472816356,577.085697608879,569.55726921636,561.618359825619,553.288991458005,544.58995206749,535.542709401211,526.169323120107,516.49235568062,506.53478247813,496.319901748927,485.871244720104,475.212486486026,464.367358076029,453.359560160976,442.212678826407,430.950103817541,419.594949636456,408.169979844774,396.697534896288,385.19946379347,373.697059830071,362.211000649204,350.761292812829,339.367221044625,328.047302274173,316.819244576427,305.699911066935,294.705288780389,283.850462528097,273.14959369915,262.615903940504,252.261663623231,242.098184975862,232.135819741302,222.383961191273,212.851050311804,203.544585955004,194.471138736261,185.636368442154,177.045044702806,168.701070673032,160.607509459572,152.76661302672,145.179853309915,137.847955266056,130.770931590524,123.948118833935,117.378214656435,111.05931596373,104.988957676921,99.164151897427,93.5814272386703,88.2368681076586,83.1261537319515,78.2445967406036,73.5871811213949,69.1485993908376,64.9232888279599,60.9054666375665,57.0891639234453,53.4682583667029,50.0365055189626,46.7875686344356,43.7150469787916,40.812502566223,38.0734852890315,35.491556416417,33.060310450844,30.7733953413637,28.6245310635365,26.6075265851042,24.7162952452829,22.9448685834731,21.2874086603125,19.7382189203293,18.2917536510011,16.9426260978046,15.685615298871,14.5156717061787,13.4279216628326,12.4176708079529,11.4804064820456,10.6117992065047,9.80770331113471,9.0641567833348,8.3773804118831,7.74377629716127,7.15992579819402,6.62258698509918,6.12869166348824,5.67534203506662,5.25980705619568,4.87951855353178,4.532067153085
77.860209697493,82.7174621963725,87.8027328450182,93.1206855070119,98.6756192957655,104.47143018257,110.511572161207,116.799018159534,123.336220901497,130.125073935343,137.166873055163,144.462278353293,152.01127715023,159.81314805659,167.866426427958,176.168871478267,184.717435320381,193.508234203716,202.536522218034,211.796667729689,221.28213281179,230.985455922576,240.898238077106,251.011132745757,261.313839699304,271.795103004317,282.442713354434,293.243514902695,304.183416737778,315.24740912259,326.41958458751,337.68316394273,349.020527244754,360.413249721426,371.842142628061,383.287298974494,394.728144029562,406.143490475714,417.511598052565,428.810237494478,440.016758533883,451.108161709464,462.061173686712,472.852325768038,483.458035240867,493.854689185278,504.018730337964,513.926744586886,523.555549651232,532.882284484332,541.88449892327,550.540243098223,558.82815610722,566.727553458128,574.218512779383,581.281957304325,587.899736640963,594.054704349686,599.730791865665,604.913078320541,609.587855839247,613.74268991237,617.366474472192,620.449481331194,622.983403675161,624.961393338884,626.378091630445,627.229653510001,627.513764970431,627.229653509943,626.378091630327,624.961393338701,622.983403674904,620.449481330851,617.366474471746,613.742689911801,609.587855838528,604.913078319639,599.730791864539,594.054704348286,587.899736639225,581.281957302172,574.218512776721,566.72755345484,558.828156103164,550.540243093224,541.884498917116,532.882284476764,523.555549641934,513.926744575474,504.018730323969,493.854689168133,483.458035219882,472.852325742379,462.061173655365,451.108161671205,440.016758487232,428.810237437648,417.511597983399,406.143490391614,394.728143927399,383.287298850503,371.842142477722,360.41324953931,349.02052702435,337.683163676241,326.419584265601,315.2474087341,304.183416269378,293.243514338477,282.442712675435,271.795102187954,261.31383871871,251.011131569001,240.898236666274,230.985454232696,221.282130789572,211.796665312051,202.536519330375,193.508230757904,184.717431212399,176.168866585481,167.866420605922,159.813141135344,152.011268929992,144.462268599465,137.166861492544,130.125060241424,123.336204698718,116.79899900633,110.511549541687,104.471403494616,98.6755878373397,93.1206484604086,87.80268925878,82.7174109645453,77.8601495358559,73.2259139252394,68.8094230646117,64.6051419187241,60.6073164734164,56.8100075397384,53.2071232696449,49.7924502934474,46.5596834034101,43.5024537217278,40.6143553045188,37.8889701463415,35.3198915620296,32.9007459342791,30.6252128263682,28.487043469608,26.4800776445756,24.5982589838647,22.8356487319694,21.1864380050158,19.6449585993509,18.2056924035247,16.8632794729497,15.612524830542,14.4484040599357,13.3660677604795,12.3608449351791,11.4282453840963,10.5639611764875,9.7638672752035,9.02402138662335,8.34066310870093,7.71021244860376,7.12926777997015,6.59460330803849,6.10316610885739,5.65207280650612,5.23860594978019,4.86021014716284,4.51448801614492
77.4083278176184,82.2370232204549,87.2923961929243,92.5790831784978,98.1013580149414,103.863093768082,109.86772412474,116.118204534128,122.61697329997,129.365912837832,136.366311323482,143.618824968394,151.123441167613,158.879442772998,166.88537375117,175.13900649025,183.63731102245,192.376426430804,201.351634707556,210.557337328954,219.987034806339,229.633309466365,239.487811703986,249.541249940345,259.783384504039,270.203025638304,280.788035818579,291.525336544672,302.400919749525,313.399863942334,324.506355177778,335.703712915425,346.974420804175,358.300162396071,369.661861762226,381.039728951036,392.413310195725,403.761542744688,415.06281415439,426.295025851035,437.435660734078,448.461854562232,459.350470831194,470.078178822168,480.6215344717,490.957063686589,501.061347703024,510.911110066838,520.483304792096,529.755205238377,538.704493233324,547.309347956311,555.548534091865,563.401488757554,570.848406710806,577.870323342408,584.449194971418,590.567975966759,596.210692235025,601.362510631663,606.009803873896,610.14021055814,613.742689912244,616.807570943323,619.326595675161,621.292956204756,622.701325345385,623.547880663231,623.830321755842,623.547880663174,622.701325345269,621.292956204574,619.326595674905,616.807570942981,613.742689911801,610.140210557574,606.009803873181,601.362510630767,596.210692233906,590.567975965367,584.44919496969,577.870323340268,570.848406708159,563.401488754285,555.548534087832,547.309347951341,538.704493227206,529.755205230854,520.483304782852,510.911110055493,501.061347689111,490.957063669545,480.621534450839,470.078178796659,459.350470800031,448.461854524199,437.435660687702,426.295025794539,415.062814085631,403.761542661082,392.413310094162,381.039728827775,369.661861612771,358.300162215025,346.974420585067,335.703712650503,324.506354857761,313.399863556129,302.400919283879,291.52533598377,280.788035143571,270.203024826741,259.78338352921,249.541248770508,239.487810301449,229.63330778642,219.98703279601,210.55733492553,201.351631836874,192.37642300525,183.637306938621,175.13900162623,166.885367963363,158.879435892443,151.123432995704,143.618815271912,136.366299828843,129.365899224424,122.616957192452,116.118185493532,109.867701638206,103.863067237033,98.1013267414682,92.5790463497014,87.2923528629413,82.2369722898334,77.4082680096878,72.8012783187448,68.4107531977424,64.2311901533953,60.2568690009427,56.4818854695264,52.9001835267171,49.5055863329005,46.2918257503559,43.2525703456266,40.3814518371007,37.6720899525199,35.1181156733458,32.7131928544876,30.4510382187741,28.3254397357107,26.3302734034644,24.4595184616443,22.7072710702883,21.0677564975156,19.5353398645697,18.1045355024643,16.7700149791704,15.5266138602737,14.3693372693059,13.2933643165485,12.2940514670572,11.3669349199887,10.507732072085,9.71234213840155,8.97684600312372,8.29750537262213,7.67076130180664,7.09323216339339,6.56171112793725,6.07316322044921,5.62472201715242,5.21368604347012,4.83751493172072,4.49382539425275
76.8902246576377,81.6861780489913,86.7072719737871,91.9581114370907,97.4429412969884,103.165608357148,109.129523021536,115.337620699303,121.792323160729,128.495500057254,135.448430829892,142.651767240534,150.105496769697,157.808907132014,165.760552167059,173.958219367754,182.398899311661,191.078757261596,199.993107201273,209.136388568939,218.502145947119,228.083011959605,237.870693617648,247.855962345948,258.028647905404,268.377636413814,278.890872647721,289.555366788528,300.357205753898,311.281569231417,322.312750505634,333.434182142122,344.628466563179,355.877411519479,367.162070430589,378.462787534941,389.759247756942,401.03053116552,412.255171864979,423.411221125672,434.476314529116,445.427742869945,456.24252652592,466.897492977218,477.36935712792,487.634804055979,497.670573793568,507.453547717542,516.960836110247,526.169866434155,535.058471850092,543.604979498219,551.788298053701,559.58800406517,566.984426583776,573.958729593934,580.492991763772,586.570283043797,592.174737656391,597.291623036339,601.907404303595,606.009803873743,609.587855838969,612.631954782643,615.133898723539,617.086925921112,618.485745310778,619.326560377557,619.607086317374,619.3265603775,618.485745310663,617.086925920932,615.133898723285,612.631954782304,609.587855838528,606.009803873181,601.907404302885,597.291623035448,592.17473765528,586.570283042415,580.492991762056,573.958729591808,566.984426581147,559.588004061924,551.788298049696,543.604979493283,535.058471844016,526.169866426683,516.960836101066,507.453547706273,497.67057377975,487.63480403905,477.3693571072,466.897492951883,456.242526494969,445.42774283217,434.476314483054,423.41122106956,412.255171796687,401.030531082482,389.759247656068,378.462787412516,367.162070282147,355.877411339661,344.628466345557,333.434181878996,322.312750187787,311.281568847831,300.357205291409,289.55536623143,278.890871977291,268.377635607754,258.028646937186,247.855961184043,237.870692224621,228.083010291051,218.502143950422,209.136386181812,199.993104350057,191.078753859271,182.398895255523,173.958214536716,165.760546418498,157.808900298115,150.105488653199,142.651757609801,135.448419413195,128.495486536154,121.792307162431,115.337601787816,109.129500687477,103.165582005999,97.4429102355717,91.9580748580199,86.7072289376124,81.6861274637158,76.8901652552476,72.3144142523516,67.9536600346543,63.802437419714,59.8550650097177,56.1056785689898,52.5482631293364,49.1766837345374,45.984714749333,42.9660676719177,40.1144174021877,37.4234269306978,34.8867704254149,32.4981547048476,30.2513390969417,28.1401536932164,26.158516016955,24.300446132832,22.5600802331466,20.931682742834,19.4096569916495,17.9885545073693,16.6630829885482,15.428113019334,14.2786835920966,13.210006506201,12.2174697131934,11.2966396799963,10.4432628424671,9.65326622191881,8.92275727694765,8.24802306223108,7.62552876487437,7.0519156874474,6.52399874510429,6.03876354215908,5.59336309124007,5.18511423570199,4.81149383337469,4.47013475700305
76.3072851317674,81.0663991171413,86.0489242522797,91.2594301695836,96.7021291208902,102.380838361214,108.298942098009,114.459353192516,120.864474812542,127.516162248079,134.415685112304,141.563690160694,148.960164969933,156.604402725971,164.494968376845,172.629666410526,181.005510521008,189.618695427072,198.464571107373,207.53761971279,216.831435412183,226.338707420751,236.051206451113,245.959774815902,256.054320397204,266.323814682458,276.75629504862,287.338871456462,298.057737694932,308.898187291648,319.844634179969,330.880638185766,341.988935368251,353.151473219171,364.349450693443,375.563363012324,386.773051147465,397.957755861148,409.096176144777,420.166531864622,431.146630391171,442.013936956457,452.745648452805,463.318770356676,473.710196433166,483.89679085035,493.855472308401,503.563299766456,512.997559330837,522.135851851623,530.956180760933,539.437039675791,547.557499281253,555.297293005669,562.636900999669,569.557631933734,576.041702136051,582.072311602795,587.633716426969,592.711297209378,597.291623036153,601.362510631325,604.913078320077,607.933794468365,610.416520097269,612.354545405552,613.742619971158,614.576976441476,614.855347562815,614.57697644142,613.742619971043,612.354545405373,610.416520097017,607.933794468029,604.91307831964,601.362510630767,597.291623035448,592.711297208494,587.633716425866,582.072311601423,576.041702134348,569.557631931625,562.63690099706,555.297293002447,547.557499277278,539.437039670893,530.956180754903,522.135851844208,512.997559321727,503.563299755274,493.855472294689,483.896790833552,473.710196412605,463.318770331535,452.745648422092,442.013936918971,431.146630345463,420.166531808941,409.096176077009,397.957755778747,386.773051047365,375.563362890839,364.349450546141,353.151473040734,341.988935152301,330.880637924661,319.844633864564,308.898186911008,298.057737235995,287.338870903643,276.756294383339,266.323813882589,256.054319436423,245.959773662922,236.051205068786,226.338705765014,216.831433430823,207.537617344,198.464568278058,189.618692050881,181.005506496026,172.629661616596,164.494962672441,156.604395944565,148.960156915781,141.563680603938,134.415673783302,127.51614883084,120.864458937133,114.459334426294,108.298919935506,102.380812212478,96.7020982980671,91.2593938714895,86.048881546681,81.0663489204291,76.307226185668,71.7666231367036,67.4393654069606,63.3200297939874,59.4029785407869,55.6823924569419,52.1523027773462,48.8066216705376,45.6391713225519,42.6437115357793,39.8139657954361,37.1436457688771,34.6264742150112,32.2562062924892,30.0266492660554,27.9316806204677,25.9652646006535,24.1214672052756,22.3944696686037,20.7785804725439,19.2682459368455,17.8580594409174,16.5427693353444,15.3172856051231,14.1766853498687,13.1162171488007,12.1313043802329,11.2175475666155,10.3707258169293,9.5867974384702,8.86189978981483,8.19234844608052,7.5746357465145,7.00542879302373,6.48156696652007,6.00005902595176,5.55807985265912,5.15296690026743,4.7822164077496,4.44347943058809
75.6610598094169,80.3793349839917,85.3191041771792,90.4848978085452,95.8808919838382,101.510871201523,107.378190628562,113.485738130411,119.835896252864,126.430504365336,133.270821186225,140.357487921085,147.690492253205,155.269133433833,163.091988725446,171.156881456096,179.460850945805,188.000124567156,196.77009220147,205.765283349279,214.979347149028,224.405035551075,234.034189885027,243.857731047277,253.865653522184,264.047023434833,274.389980815592,284.881746236975,295.5086319615,306.256057715665,317.108571179662,328.049873255444,339.062848147198,350.129598258481,361.231483879351,372.34916760507,383.462663395527,394.551390151748,405.594229652911,416.569588664522,427.455464996002,438.229517254272,448.869138009214,459.351530057419,469.653785442731,479.752966865948,489.626191092017,499.250713941263,508.604016432003,517.663891625439,526.408531710186,534.816614853397,542.867391338335,550.540768504436,557.81739400566,564.678736906138,571.107166138935,577.086025864073,582.599707275845,587.633716426742,592.174737655978,596.210692234459,599.730791864973,602.725586706136,605.187007621067,607.108402386535,608.484565635301,609.31176234308,609.587744711893,609.311762343024,608.484565635187,607.108402386358,605.187007620817,602.725586705802,599.730791864539,596.210692233906,592.17473765528,587.633716425866,582.599707274752,577.086025862713,571.107166137247,564.678736904047,557.817394003073,550.540768501242,542.867391334395,534.816614848541,526.408531704208,517.663891618088,508.604016422971,499.250713930177,489.626191078423,479.752966849293,469.653785422347,459.351530032494,448.869137978764,438.229517217108,427.455464950686,416.569588609318,405.594229585724,394.551390070054,383.462663296287,372.349167484627,361.231483733313,350.129598081576,339.062847933101,328.04987299658,317.108570866963,306.256057338291,295.508631506501,284.8817456889,274.389980156021,264.047022641828,253.865652569648,243.857729904191,234.034188514562,224.405033909546,214.979345184671,205.765281000815,196.770089396433,188.000121219936,179.460846955363,171.156876703304,163.091983069992,155.269126710619,147.690484268167,140.357478446337,133.270809954439,126.430491063232,119.835880513685,113.485719525226,107.37816865624,101.510845277174,95.8808614255114,90.4848618219315,85.3190618380449,80.3792852180265,75.6610013691446,71.1593620494376,66.8692372944979,62.7852504393468,58.9018121055914,55.2131530383313,51.7133556915042,48.3963844744221,45.2561145860503,42.2863593770341,39.4808961924891,36.8334906610805,34.337919407849,31.9879911795493,29.7775663818977,27.7005750380536,25.7510331868415,23.9230577476541,22.2108798866335,20.6088569256236,19.1114828415001,17.7133974088531,16.409394043613,15.1944264091082,14.0636138492453,13.0122457160376,12.0357846606107,11.1298689581208,10.2903139377717,9.51311258934937,8.79443541744939,8.13062961389991,7.51821761781428,6.95389513129587,6.43452865709586,5.95715262253855,5.51896615181424,5.11732954633627,4.74976053030002,4.41393031590224
74.9532580472681,79.6268030306107,84.5197422250215,89.6365631007835,94.9814021733287,100.55800806332,106.369704130068,112.419350861485,118.709308216356,125.241398126506,132.016867377433,139.036351095932,146.299837082057,153.806631230296,161.555324290961,169.543760227388,177.769006427438,186.227326028955,194.914152618105,203.82406755685,212.95078019107,222.287111184081,231.824979211316,241.555391240884,251.468436611431,261.553285103359,271.798189181921,282.190490571152,292.716631296059,303.362169307045,314.11179877538,324.949375121722,335.857944811424,346.81977992083,357.816417448173,368.828703311176,379.836840941379,390.820444352739,401.758595529386,412.629905945002,423.412581994171,434.084494084684,444.623249109375,455.00626598688,465.210853933041,475.214293098837,484.993917186854,494.527197636783,503.791828951387,512.765814718084,521.427553867897,529.755926703215,537.73038021876,545.331012236404,552.538653874213,559.334949873293,565.702436312746,571.624615253284,577.086025863796,582.072311602291,586.570283043107,590.567975965915,594.054704348715,597.02110793651,599.459194089445,601.362373648697,602.725490594946,603.544845312685,603.818211313508,603.54484531263,602.725490594833,601.362373648521,599.459194089197,597.021107936179,594.054704348286,590.567975965367,586.570283042415,582.072311601423,577.086025862713,571.624615251937,565.702436311074,559.334949871222,552.538653871651,545.33101223324,537.730380214857,529.755926698405,521.427553861976,512.765814710803,503.79182894244,494.527197625802,484.993917173389,475.21429308234,465.21085391285,455.006265962191,444.623249079214,434.084494047872,423.412581949285,412.629905890322,401.758595462836,390.820444271819,379.83684084308,368.828703191875,357.81641730352,346.819779745602,335.857944599357,324.949374865312,314.111798465646,303.362168933248,292.716630845374,282.190490028273,271.798188528602,261.553284317872,251.468435667925,241.555390108634,231.824977853843,222.287109558114,212.950778245335,203.82406523065,194.914149839661,186.227322713468,177.769002474826,169.543755519654,161.555318689122,153.80662457082,146.299829172719,139.036341711006,132.016856252127,125.24138495051,118.709292626387,112.41933243268,106.369682366047,100.557982384739,94.9813719047009,89.6365274553302,84.5197002872706,79.6267537364368,74.9532001610213,70.4942372813645,66.2447837661465,62.1995139222466,58.3528913596957,54.6992015172823,51.2325829484632,47.9470572811555,44.836557778662,41.8949564422999,39.1160896091961,36.4937820111015,34.0218692718949,31.6942188326482,29.5047493036583,27.4474482526776,25.5163884476781,23.7057425808316,22.0097965079779,20.422961044677,18.9397823660037,17.5549510625559,16.263309909721,15.0598604111073,13.9397681802161,12.8983672269446,11.9311632173923,11.0338357767382,10.2022399057013,9.43240658132465,8.72054261258553,8.06302982066321,7.45642361264297,6.89745101603233,6.38300823976239,5.91015782537883,5.47612544993417,5.07829643971169,4.71421205137731,4.38156557450133
74.1857404609082,78.8107814559199,83.6529396978769,88.7166560842344,94.0060241999515,99.5247537609512,105.276133635342,111.262994623707,117.487672192199,123.95196936388,130.65711998459,137.603752589516,144.791855105328,152.220740630227,159.889014540304,167.794543175138,175.934424358455,184.304960010804,192.901631110488,201.719075256343,210.751067081265,219.990501758706,229.429381835436,239.058807612979,248.868971286936,258.849155038219,268.98773325287,279.272179027764,289.689075098193,300.224129300143,310.862194655122,321.587294138931,332.382650167734,343.230718805623,354.11322866752,365.011224460158,375.905115072078,386.774726091454,397.599356598261,408.35784004518,419.028609009871,429.589763570211,440.019143023989,450.29440064567,460.393081145465,470.29270047037,479.970827563207,489.405167674411,498.573646802447,507.454496822626,516.026340850824,524.268278378413,532.159969707728,539.681719213702,546.814556957007,553.54031817724,559.841720201317,565.702436312408,571.107166138319,576.041702135207,580.492991762741,584.449194970232,587.89973663965,590.835353660605,593.248136344175,595.13156391656,596.480533869747,597.291384984373,597.561913879453,597.291384984319,596.480533869636,595.131563916386,593.24813634393,590.835353660278,587.899736639225,584.44919496969,580.492991762056,576.041702134349,571.107166137247,565.702436311074,559.841720199663,553.54031817519,546.814556954472,539.681719210571,532.159969703866,524.268278373653,516.026340844965,507.45449681542,498.573646793593,489.405167663544,479.970827549882,470.292700454044,460.393081125483,450.294400621237,440.019142994141,429.589763533781,419.028608965451,408.357839991068,397.599356532402,386.774726011374,375.905114974799,365.011224342096,354.113228524368,343.230718632213,332.382649957868,321.587293885182,310.862194348603,300.224128930226,289.689074652186,279.272178490519,268.987732606332,258.849154260884,248.868970353221,239.05880649248,229.429380492051,219.990500149614,210.751065155724,201.719072954285,192.90162836088,184.304956729726,175.934420446865,167.794538516262,159.889008996603,152.220734039866,144.791847278076,137.603743301992,130.657108974747,123.95195632463,117.48765676403,111.262976386164,105.276112097197,99.5247283488729,94.005994245464,88.7166208087244,83.6528981953734,78.8107326733414,74.1856831754289,69.7729972620266,65.5676463379786,61.5643599824164,57.7576592643225,54.1418889305718,50.7112483671445,47.459821247983,44.3816037994999,41.4705316219245,38.7205050214335,36.1254128192732,33.6791546157744,31.3756614982495,29.2089151921801,27.1729656648341,25.2619471994562,23.4700929664358,21.791748125371,20.2213814986961,18.7535958635432,17.3831369137632,16.1049009485596,14.9139413480095,13.8054738988825,12.7748810366566,11.8177150714924,10.9297004672111,10.1067352430532,9.34489156822858,8.6404156190241,7.98972676757962,7.38941617039444,6.83624482324218,6.32714114748503,5.85919817083092,5.42967036340665,5.03597018766385,4.67566441812658,4.34647028436279
73.3605107823902,77.9334006196843,82.7209595276157,87.727578328852,92.9573044498006,98.413805776273,104.100334091673,110.019688276969,116.174177464004,122.565584345264,129.19512885396,136.063432438024,143.170483160264,150.515601864265,158.097409651655,165.913796920798,173.961894219853,182.23804516827,190.737781700056,199.455801879547,208.385950535799,217.521202955049,226.853651861961,236.374497909509,246.074043884391,255.941692819783,265.965950190128,276.134430343479,286.433867305875,296.850130069253,307.368242449819,317.972407577517,328.64603704963,339.371784752618,350.131585326364,360.906697214189,371.6777502106,382.424797386928,393.127371243124,403.764543902172,414.314991132235,424.757059950902,435.068839536188,445.228235140344,455.213044675524,465.001037614995,474.570035830279,483.897995963526,492.963092915803,501.74380401601,510.218993422049,518.367996295791,526.170702286465,533.607637853444,540.660046959138,547.309969665822,553.540318176827,559.334949872541,564.678736905107,569.557631932474,573.958729592485,577.870323340805,581.281957302592,584.18447281668,586.570049382422,588.43223975313,589.765998955783,590.567707054291,590.835185512609,590.567707054237,589.765998955672,588.432239752958,586.57004938218,584.184472816357,581.281957302172,577.870323340269,573.958729591808,569.557631931625,564.678736904047,559.334949871222,553.54031817519,547.309969663795,540.660046956631,533.607637850348,526.170702282646,518.367996291085,510.218993416255,501.743804008885,492.963092907049,483.897995952781,474.570035817103,465.001037598854,455.213044655768,445.228235116186,435.068839506676,424.757059914884,414.314991088316,403.764543848669,393.127371178007,382.424797307752,371.677750114418,360.906697097458,350.131585184826,339.371784581164,328.64603684213,317.972407326629,307.368242146755,296.850129703507,286.433866864896,276.134429812292,265.96594955088,255.941692051213,246.074042961205,236.374496801645,226.853650533724,217.521201364101,208.38594863197,199.455799603447,190.737778981452,182.238041924189,173.961890352369,165.913792314455,158.097404170464,150.515595348215,143.17047542127,136.063423255224,129.195117968262,122.565571453042,116.1741622098,110.019670245069,104.100312796388,98.413780650737,92.9572748330747,87.7275434511025,82.7209184930872,77.9333523871698,73.3604541428519,68.9975249082068,64.8395927896426,60.8814467946399,57.1176697716541,53.5426702352107,50.1507129780045,46.9359483854414,43.8924403814406,41.0141929473482,38.2951751684275,35.7293447745132,33.3106701529818,31.0331508231493,28.8908363715139,26.8778438568776,24.9883737032869,23.2167241068986,21.5573039903077,20.0046445445443,18.5534094048869,17.1984035118283,15.9345807130147,14.7570501657487,13.6610816027563,12.6421095263695,11.6957363981262,10.8177348920494,10.0040492806014,9.25079602252872,8.55426362158137,7.91091182443615,7.31737022511868,6.77043634185078,6.26707323058108,5.80440669753138,5.37972217094574,4.99046128989908,4.63421826554265,4.30873606756669
72.4797071535457,76.9969337855993,81.7262164429373,86.6718925012232,91.8379601198286,97.2280425374628,102.845351955406,108.692653185431,114.772227251621,121.085835146756,127.634681954486,134.41938155821,141.439922166039,148.695632888549,156.185151611916,163.906394413494,171.856526769659,180.031936806916,188.428210846515,197.040111490262,205.861558490632,214.885612641734,224.10446291903,233.509417084974,243.090895964966,252.838431583075,262.740669330108,272.785374317667,282.959442050998,293.248913530818,303.638994869961,314.114081484747,324.657786893717,335.252976127773,345.881803726224,356.525756262777,367.165699314507,377.781928755445,388.354226224857,398.861918588957,409.283941183736,419.59890459631,429.785164712753,439.820895732203,449.68416582029,459.353015049926,468.805535254464,478.019951397401,486.974704044407,495.6485325077,504.02055821985,512.070367884132,519.778095941716,527.124505892388,534.09107000521,540.660046958633,546.814556956088,552.538653872954,557.81739400412,562.636900997899,566.984426581816,570.848406708689,574.218512777136,577.085697609199,579.44223589877,581.281758877852,582.599282983033,583.391232341659,583.655454935775,583.391232341606,582.599282982924,581.281758877682,579.442235898531,577.08569760888,574.218512776721,570.848406708159,566.984426581147,562.63690099706,557.817394003074,552.538653871651,546.814556954472,540.660046956631,534.091070002733,527.12450588933,519.778095937944,512.070367879483,504.020558214127,495.648532500661,486.97470403576,478.019951386788,468.805535241449,459.353015033981,449.684165800775,439.82089570834,429.785164683601,419.59890456073,409.283941140351,398.861918536105,388.354226160533,377.781928677232,367.165699219496,356.525756147466,345.88180358641,335.252975958406,324.657786688743,314.114081236913,303.638994570587,293.248913169524,282.959441615387,272.785373792946,262.740668698641,252.83843082386,243.090895053018,233.509415990596,224.104461606961,214.885611070152,205.861556609977,197.040109241868,188.428208161003,180.031933602323,171.856522949251,163.906389863221,156.185146197445,148.695626451816,141.439914521249,134.419372487187,127.634671201293,121.085822411463,114.772212183098,108.692635373023,102.845330919337,97.2280177177657,91.8379308636105,86.6718580480209,81.726175907899,76.9968861401918,72.4796512034485,68.1698294422128,64.0625094829455,60.1525437635959,56.4345810725456,52.9030979863148,49.5524291090375,46.3767960301742,43.3703349301457,40.5271227764465,37.8412020652589,35.3066040755597,32.917370614139,30.6675742407753,28.5513369729895,26.5628474793043,24.6963767787284,22.9462924722569,21.3070715395117,19.7733117402462,18.3397416662924,17.0012294946685,15.752790496983,14.5895933640047,13.5069654073311,12.5003967025191,11.5655432398583,10.6982291502235,9.89444807415751,9.15036374256107,8.46230983713191,7.82678919805097,7.24047244539221,6.70019607937939,6.20296012296583,5.74592536831085,5.32641028660732,4.94188765841274,4.58998097918725,4.26846069217629
71.5455929079442,76.0037873207059,80.6712665588972,85.5523113162987,90.6508675033601,95.9705110094237,101.51441205794,107.285299329447,113.28542403905,119.516524166444,125.979789046953,132.675824541599,139.604619012591,146.765510337851,154.157154203993,161.777493921578,169.623732009228,177.692303794294,185.978853277055,194.478211502914,203.184377682502,212.090503293165,221.188879386738,230.470927317955,239.927193095206,249.547345540622,259.320178429812,269.233616762885,279.274727297817,289.429733454937,299.684034677199,310.022230305432,320.428148000712,330.884876717895,341.374804205125,351.879658974075,362.380556655129,372.858050620639,383.292186728343,393.662562006005,403.948387067786,414.128552022864,424.181695607873,434.08627724684,443.820651715955,453.363146065813,462.692138431031,471.786138336595,480.623868092118,489.184344849673,497.446962888042,505.391575676439,512.998577264,520.24898253779,527.124505891774,533.607637852324,539.681719212166,545.331012234525,550.540768502275,555.297293003274,559.588004062583,563.401488754808,566.727553455249,569.557269216676,571.883011689165,573.698495333332,574.998801712188,575.780401683454,576.041171352271,575.780401683401,574.99880171208,573.698495333164,571.883011688929,569.557269216361,566.72755345484,563.401488754286,559.588004061924,555.297293002447,550.540768501242,545.33101223324,539.681719210571,533.607637850348,527.12450588933,520.248982534771,512.998577260277,505.39157567185,497.446962882394,489.184344842727,480.623868083584,471.786138326119,462.692138418186,453.363146050077,443.820651696695,434.086277223289,424.181695579102,414.128551987749,403.948387024968,393.662561953844,383.292186664859,372.858050543449,362.380556561359,351.879658860271,341.374804067137,330.884876550742,320.428147798416,310.022230060837,299.684034381737,289.429733098364,279.274726867899,269.233616245021,259.320177806597,249.547344791329,239.927192195175,230.470926237878,221.188878091815,212.090501742121,203.184375826424,194.478209283902,185.978850626638,177.69230063158,169.623728238747,161.777489430769,154.157148860279,146.765503985235,139.604611467705,132.675815589118,125.979778434286,119.516511597579,113.285409167446,107.285281749816,101.514391296776,95.9704865140764,90.6508386294693,85.5522773133391,80.6712265535807,76.0037402979402,71.5455376890166,67.2920377296389,63.2383932292953,59.3795238955312,55.7101484476668,52.2248156436673,48.9179341244416,45.7838009931285,42.8166290599729,40.0105726961028,37.3597522518131,34.8582770067826,32.5002666309237,30.279871145249,28.1912893821879,26.2287859541604,24.3867067478958,22.6594929699529,21.0416937761312,19.5279775239768,18.1131416933694,16.7921215252415,15.559997432848,14.4120012436847,13.343521333181,12.3501067136861,11.4274701440681,10.5714903264777,9.77821325754045,9.0438528014571,8.36479055226714,7.73757505188891,7.15892042954521,6.62570452684642,6.1349665711775,5.6839044581583,5.26987170185409,4.8903741091424,4.54306623222426,4.22574765073654
70.5605468970398,74.9564904101902,79.5587964516581,84.3716859428107,89.3990496963492,94.6444136705656,100.110903822276,105.80121073076,111.717554176836,117.861647872347,124.234664545625,130.837201597902,137.669247553889,144.730149536885,152.018582004494,159.532516985352,167.269196060027,175.225104330294,183.395946620363,191.776626151061,200.361225923565,209.142993042878,218.114326202835,227.266766543971,236.590992083158,246.076815899384,255.713188243615,265.488202722244,275.389106683388,285.402315913251,295.513433726073,305.707274505991,315.967891732552,326.278610493828,336.622064462301,346.980237279073,357.334508261772,367.665702320944,377.954143939077,388.179715035816,398.321916512786,408.35993324193,418.272702232621,428.03898368541,437.637434614242,447.0466846946,456.245413972696,465.212432050467,473.926758343317,482.367702992149,490.514947998655,498.348628143171,505.849411237701,512.998577263253,519.778095940354,526.170702284594,532.159969705439,537.730380216124,542.867391335413,547.557499278094,551.788298050346,555.548534088348,558.828156103567,561.61835982593,563.911627366244,565.701760951707,566.983910822712,567.754597115291,568.011725591066,567.754597115239,566.983910822606,565.701760951541,563.911627366011,561.618359825619,558.828156103164,555.548534087833,551.788298049696,547.557499277278,542.867391334395,537.730380214857,532.159969703866,526.170702282646,519.778095937944,512.998577260277,505.849411234029,498.348628138647,490.514947993086,482.367702985299,473.926758334902,465.212432040138,456.24541396003,447.046684679084,437.63743459525,428.038983662188,418.272702204251,408.359933207306,398.321916470566,388.179714984383,377.95414387648,367.665702244831,357.334508169311,346.980237166859,336.62206432624,326.278610329008,315.967891533081,305.707274264811,295.513433434737,285.402315561658,275.389106259473,265.488202211611,255.713187629102,246.076815160554,236.590991195694,227.266765478975,218.114324925994,209.142991513491,200.361224093403,191.776623963034,183.395944006954,175.225101211741,167.269192342194,159.53251255725,152.018576735395,144.730143272972,137.669240114353,130.837192770427,124.234654081145,117.861635478984,111.717539512888,105.801193396599,100.110883351005,94.6443895172531,89.3990212256318,84.3716524146431,79.5587570049459,74.9564440440154,70.560492449148,66.3663851887988,62.3693427550067,58.5643557927295,54.9462167651492,51.5095505473067,48.2488438536764,45.1584734183927,42.2327328596993,39.465858172723,36.8520518067993,34.3855052952294,32.0604204164662,29.8710288762633,27.8116105102246,25.8765100154417,24.0601522284622,22.3570559746879,20.7618465214386,19.2692666733368,17.8741865543703,16.5716121259874,15.3566924948809,14.2247260677488,13.1711656133045,12.1916222941669,11.2818687330396,10.4378411788009,9.65564083882831,8.93153444409752,8.26195411336833,7.64349658214391,7.07292186109433,6.54715138731963,6.06326573022395,5.61850191192147,5.21025040003197,4.8360518284843,4.49359349956217,4.18070571793021
69.5270534182705,73.8576843489796,78.3916117837037,83.1329939316132,88.0856637977908,93.2530949537224,98.6383669124264,104.24413027799,110.072571850915,116.125379881627,122.403709674688,128.908149755459,135.638688819146,142.594683689143,149.774828517253,157.17712546263,164.798857088963,172.636560720512,180.686004996915,188.942168864224,197.399223235224,206.050515545832,214.888557426029,223.905015693571,233.09070686638,242.435595375278,251.928795642505,261.558578173296,271.312379787863,281.176818099408,291.137710320443,301.180096454881,311.288266907159,321.445794512291,331.635570962383,341.839847575982,352.040280326875,362.217979018855,372.353560462747,382.427205481894,392.418719542586,402.307596776828,412.073087136665,421.694266392253,431.150108660231,440.419561124959,449.481620593141,458.315411502341,466.900264986289,475.215798584771,483.241996173456,490.959287679509,498.348628142264,505.391575674782,512.070367881857,518.367996293004,524.268278375203,529.755926699654,534.816614849545,539.437039671697,543.604979493924,547.309347951849,550.540243093622,553.288991458312,555.548186853513,557.311723589624,558.574823962176,559.334059809164,559.587368007285,559.334059809113,558.574823962072,557.311723589461,555.548186853284,553.288991458006,550.540243093224,547.309347951342,543.604979493283,539.437039670893,534.816614848541,529.755926698405,524.268278373653,518.367996291085,512.070367879483,505.39157567185,498.348628138647,490.959287675052,483.241996167969,475.215798578024,466.900264977999,458.315411492165,449.481620580664,440.419561109673,431.150108641522,421.694266369376,412.073087108717,402.307596742718,392.418719500994,382.427205431225,372.35356040108,362.217978943873,352.040280235788,341.839847465435,331.635570828343,321.44579434992,311.288266710652,301.180096217285,291.137710033435,281.176817753038,271.312379370246,261.55857767025,251.928795037123,242.435594647425,233.090705992102,223.905014644399,214.888556168159,206.050514039168,197.399221432255,188.942166708705,180.686002422335,172.636557648293,164.798853426368,157.177121100318,149.77482332644,142.594677518295,135.638681490143,128.908141059138,122.403699365684,116.125367672398,110.072557404836,104.24411320137,98.6383467453066,93.2530711592669,88.0856357500762,83.1329609015892,78.3915729230697,73.8576386716886,69.5269997793365,65.395206326112,61.4575498154323,57.7090953185788,54.1447126695362,50.7591066040831,47.5468457501475,44.5023903893466,41.6201189222987,38.8943529826385,36.319381156615,33.8894812766272,31.5989412680092,29.4420785387517,27.4132579116081,25.5069081071423,23.7175367947047,22.0397442360637,20.4682355534487,18.9978316600851,17.6234788969205,16.3402574241626,15.1433884204877,14.0282401463578,12.9903329308215,12.0253431435013,11.1291062152163,10.2976187718898,9.52703994707944,8.81369193867929,8.15405987512439,7.54479105580533,6.98269362942435,6.46473477272592,5.98803843045577,5.54988267557878,5.14769674675406,4.77905781785888,4.44168755200525,4.13344849003304
68.4476918046563,72.7101114734451,77.1726255467617,81.8393267383094,86.7139876799558,91.8000272313679,97.1004764005143,102.617944042127,108.354582512668,114.312053471128,120.491494025003,126.893483429858,133.51801055896,140.364442366302,147.431493571951,154.717197802818,162.218880424615,169.9331333018,177.855791721677,185.98191371633,194.305762011818,202.820788827815,211.519623742746,220.394064829346,229.435073253489,238.632771515079,247.976445493816,257.454550444837,267.054721069534,276.763785765517,286.56778513673,296.451994820235,306.400952660474,316.398490234818,326.427768706331,336.471318950971,346.511085877137,356.528476825897,366.504413910422,376.419390123594,386.253529013445,395.986647697509,405.598322959413,415.067960144416,424.374864545386,433.498314947124,442.41763897518,451.11228987566,459.561924335197,467.746480935323,475.646258823343,483.241996172356,490.514947996645,497.446962885279,504.020558216463,510.218993418144,516.02634084649,521.427553863205,526.408531705196,530.956180755695,535.058471844647,538.704493227706,541.884498917508,544.589952067792,546.813563140225,548.549322615207,549.792528041336,550.539805253186,550.789123623468,550.539805253135,549.792528041233,548.549322615046,546.813563139999,544.58995206749,541.884498917116,538.704493227206,535.058471844016,530.956180754903,526.408531704208,521.427553861976,516.026340844965,510.218993416256,504.020558214127,497.446962882394,490.514947993086,483.241996167969,475.646258817943,467.746480928681,459.561924327037,451.112289865645,442.417638962899,433.498314932079,424.374864526971,415.067960121899,405.598322931906,395.986647663936,386.253528972507,376.419390073724,366.504413849726,356.528476752095,346.511085787485,336.471318842165,326.427768574403,316.398490075004,306.400952467062,296.451994586381,286.567784854243,276.763785424603,267.054720658495,257.454549949715,247.976444897969,238.63277079869,229.435072392982,220.394063796699,211.519622504688,202.820787344882,194.305760237246,185.981911594762,177.855789187649,169.933130277971,162.218876819708,154.717193509217,147.431488462898,140.364436292652,133.518003345396,126.893474870511,120.491483878374,114.312041454206,108.354568294128,102.617927234479,97.1004565510445,91.8000038116961,86.7139600740175,81.8392942285375,77.172587298217,72.7100665156119,68.4476390105829,64.3809249533974,60.5052900104522,56.8158769825145,53.3076365082145,49.9753567284192,46.8136918199635,43.8171893199219,40.9803161740678,38.2974834553213,35.763069709742,33.3714428989226,31.116980918418,28.9940906820617,26.9972257716259,25.1209026602458,23.3597155263305,21.7083496822945,20.1615936493684,18.7143499159685,17.3616444226357,16.0986348213996,14.920617561593,13.8230338576663,12.801474597442,11.8516842515396,10.9695638464208,10.1511730646865,9.39273153693293,8.69061938968555,8.0413771137108,7.44170481639498,6.88846092091724,6.3786603736669,5.90947241980002,5.47821800503629,5.08236685979637,4.7195343196088,4.38747793340376,4.08409390889067
67.3251257367659,71.5166037979286,75.9048459911829,80.493876913127,85.2874064058068,90.2887964270778,95.5010275383091,100.926665173744,106.567825867084,112.426143621491,118.502736619004,124.798174474346,131.312446245971,138.044929423977,144.994360119995,152.158804688278,159.535633009831,167.121493672437,174.91229127882,182.903166112738,191.088476388603,199.46178330411,208.015839107341,216.742578379857,225.633112725424,234.677729040176,243.865891524341,253.186247578088,262.626637704728,272.17410952352,281.814935971697,291.534637751348,301.318010051393,311.149153548443,321.011509662849,330.887900018037,340.760570022437,350.611236464144,360.42113897926,370.171095225654,379.841559565208,389.412685029384,398.864388315734,408.176417536776,417.328422417865,426.300026617472,435.070901821935,443.620843247386,451.929846164514,459.978183047194,467.746480933992,475.215798582337,482.3677029888,489.184344845564,495.648532502959,501.743804010743,507.454496816919,512.765814712011,517.663891619059,522.135851844986,526.169866427303,529.755205231345,532.882284477149,535.542709401508,537.729311789561,539.436182141187,540.658696270262,541.393536169301,541.638705007774,541.393536169251,540.658696270161,539.436182141029,537.729311789339,535.542709401211,532.882284476764,529.755205230854,526.169866426682,522.135851844208,517.663891618088,512.765814710803,507.45449681542,501.743804008885,495.648532500661,489.184344842727,482.367702985299,475.215798578024,467.746480928681,459.978183040663,451.929846156491,443.620843237538,435.070901809859,426.300026602677,417.328422399757,408.176417514634,398.864388288684,389.41268499637,379.841559524952,370.171095176614,360.421138919575,350.611236391572,340.760569934277,330.887899911042,321.011509533116,311.149153391289,301.3180098612,291.534637521386,281.814935693912,272.17410918828,262.626637300531,253.186247091205,243.865890938411,234.67772833571,225.633111879238,216.742577364397,208.015837889889,199.461781845858,191.088474643566,182.903164026481,174.912288786967,167.121490698936,159.535629464923,152.158800466137,144.994355095974,138.044923451413,131.312439152466,124.798166057457,118.502726641252,112.426131804573,106.56781188519,100.926648645834,95.5010080192041,90.2887733971914,85.2873792593281,80.4938449444317,75.9048083792281,71.5165595883513,67.3250738213709,63.3260441442771,59.514913355026,55.8869050952097,52.4370540425353,49.1602350814786,46.0511913621149,43.1045611696185,40.3149035391844,37.6767225630744,35.1844903480511,32.8326685925723,30.6157287637225,28.5281708638988,26.5645407867188,24.7194462704304,22.987571465267,21.3636901386784,19.8426775491736,18.4195210256338,17.0893292943888,15.8473406011161,14.6889296787225,13.6096136158333,12.6050566833564,11.6710741788403,10.8036353500377,9.99886546024599,9.25304705866255,8.56262051919899,7.92418391098468,7.33449226318863,6.79045628584292,6.28914060709471,5.82776158578552,5.40368475649118,5.01442196218948,4.65762822758655,4.33109842386057,4.0327637732007
66.1620923387987,70.2800714217412,74.5913643115086,79.0999250320436,83.8093983720633,88.723087336361,93.8439202211594,99.1744174749484,104.716658517301,110.472248698581,116.44228659313,122.627331827285,129.027373651365,135.641800471388,142.469370561692,149.50818418366,156.755657338317,164.208497381589,171.862680730368,179.713432885171,187.75521099102,195.981689152176,204.385746708487,212.959459671343,221.694095505526,230.580111429717,239.607156392938,248.764076867015,258.038926576127,267.418980263885,276.890751576189,286.440015114488,296.051832689181,305.710583776865,315.400000158156,325.103204685095,334.802754098849,344.480685789787,354.118568363301,363.697555846089,373.198445339372,382.601737897883,391.887702386641,401.036442041827,410.027963437709,418.842247538762,427.459322495146,435.859337820676,444.022639575702,451.929846162907,459.561924332255,466.900264982237,473.926758338341,480.623868086371,486.974704038017,492.963092908874,498.573646795066,503.791828943628,508.604016423925,512.997559322492,516.960836101676,520.483304783335,523.555549642312,526.169323120398,528.317582699793,529.994522505448,531.195599437897,531.917553672035,532.158423392427,531.917553671987,531.195599437798,529.994522505293,528.317582699575,526.169323120107,523.555549641934,520.483304782852,516.960836101066,512.997559321727,508.604016422971,503.791828942441,498.573646793593,492.963092907049,486.97470403576,480.623868083584,473.926758334902,466.900264977999,459.561924327037,451.929846156491,444.022639567819,435.859337811001,427.459322483281,418.842247524227,410.027963419918,401.036442020073,391.887702360065,382.601737865447,373.198445299821,363.697555797909,354.118568304663,344.480685718486,334.802754012235,325.103204579976,315.400000030698,305.710583622467,296.051832502323,286.440014888558,276.890751303274,267.418979934524,258.038926179017,248.76407638867,239.607155817282,230.580110737604,221.694094674179,212.959458673689,204.385745512383,195.981687719495,187.755209276584,179.713430835497,171.86267828221,164.208494460229,156.75565385557,149.508180035556,142.469365625769,135.641794603555,129.027366682247,122.62732355799,116.44227679034,110.472237088876,104.716644780583,99.1744012368609,93.8439010443284,88.7230647103115,83.8093717016072,79.0998936239301,74.5913273590921,70.2800279873937,66.1620413337576,62.2331359877111,58.4888346592817,54.9244447451135,51.5350879915105,48.3157291535741,45.2612035620118,42.3662435214716,39.6255034762972,37.0335838913419,34.5850538068364,32.2744720372198,30.0964069942614,28.0454551246671,26.1162579616451,24.3035177985676,22.6020120008826,21.0066059797861,19.5122648578536,18.1140638628413,16.8071974912086,15.5869874875973,14.4488896905291,13.3884997979888,12.4015581093527,11.4839533023351,10.6317253052857,9.84106732631379,9.1083271013674,8.43000742359945,7.80276601614187,7.2234148098191,6.68891868640235,6.19639374677197,5.74310516185386,5.32646466246157,4.94402772224352,4.5934904858367,4.27268649209519,3.9795832399232
64.9613911209417,69.0034907727222,73.2353421584267,77.6608264436657,82.283521256909,87.1066687405415,92.1331432328983,97.3654187397377,102.805536364465,108.455071876656,114.315103607908,120.386180872672,126.668293119344,133.160840023404,139.862602739693,146.771716534894,153.885645023767,161.201156233736,168.714300721749,176.420391965046,184.31398924338,192.388883224343,200.638084455748,209.053814959377,217.62750310899,226.349781962146,235.210491200224,244.198682814155,253.302630654689,262.509843945796,271.807084838008,281.180390055318,290.615096664824,300.09587197276,309.606747524072,319.131157155476,328.651979024184,338.151581506366,347.611872831223,357.014354288443,366.340176819081,375.570200772769,384.68505858784,393.665220125726,402.491060367075,411.142929154642,419.601222647399,427.846456131687,435.859337818738,443.620843243836,451.112289870767,458.315411496325,465.212432043513,471.786138328856,478.019951389003,483.897995954572,489.40516766499,494.527197626967,499.250713931114,503.563299756025,507.453547706872,510.911110055967,513.926744575845,516.492355680906,518.60103062143,520.247070503607,521.42601594083,522.134667174757,522.371098539101,522.134667174709,521.426015940733,520.247070503455,518.601030621216,516.49235568062,513.926744575474,510.911110055493,507.453547706273,503.563299755274,499.250713930177,494.527197625802,489.405167663544,483.897995952781,478.019951386788,471.786138326119,465.212432040138,458.315411492165,451.112289865645,443.620843237538,435.859337811001,427.84645612219,419.601222635753,411.142929140374,402.491060349612,393.665220104372,384.685058561754,375.570200740931,366.34017678026,357.01435424115,347.611872773665,338.15158143638,328.651978939166,319.131157052294,309.606747398963,300.095871821207,290.615096481409,281.180389833552,271.807084570123,262.509843622504,253.302630264896,244.198682344625,235.210490635176,226.349781282786,217.627502292962,209.053813980106,200.638083281684,192.388881818061,184.313987560534,176.42038995314,168.714298318702,161.201153366206,153.885641605194,146.771712463224,139.862597894722,133.160834263693,126.668286278641,120.386172755749,114.315093985748,108.455060480876,102.805522880866,97.3654028008593,92.1331244094268,87.1066465314081,82.2834950778928,77.6607956142899,73.2353058869092,69.0034481387122,64.9613410557387,61.1048311970764,57.4295237729817,53.9308126477726,50.6039094562905,47.4438717349525,44.4456299806049,41.604013562431,38.9137754239934,36.3696155240106,33.9662029756201,31.6981968545924,29.5602656571842,27.5471053980063,25.6534563473912,23.8741184162456,22.2039652042456,20.6379567344516,19.1711509039839,17.7987136863038,16.5159281258863,15.3182021706655,14.2010753915915,13.1602246419743,12.1914687120358,11.2907720362607,10.4542475127681,9.67815849504626,8.95892001703414,8.29309931273312,7.67741569132557,7.10873982819746,6.58409253134984,6.10064304147274,5.65570692248101,5.24674359760957,4.87135358426867,4.52727547880058,4.21238274008716,3.92468031866215
63.7258728301245,67.6898927534069,71.8399990472767,76.1799979063185,80.7133978512901,85.4433783973231,90.3727583602333,95.5039639563344,100.8389968618,106.379402407653,112.126238095763,118.080042629679,124.240805661619,130.607938463306,137.180245733558,143.955898759415,150.932410150043,158.106610363672,165.474626247166,173.031861805574,180.772981415007,188.691895686414,196.781750180241,205.03491716257,213.442990582064,221.996784434005,230.686334662853,239.500904738138,248.428995020252,257.45835601282,266.576005576965,275.768250160063,285.02071006761,294.318348781754,303.645506304121,312.985936473812,322.322848184278,331.638950395179,340.91650080769,350.137358044175,359.283037145917,368.334768176021,377.273557688771,386.080252801989,394.735607585487,403.220351456766,411.515259254868,419.601222645067,427.45932249087,435.070901816035,442.417638967921,449.481620584743,456.245413963341,462.69213842087,468.805535243622,474.57003581886,479.9708275513,484.993917174531,489.626191079342,493.855472295425,497.670573780336,501.061347689576,504.018730324334,506.53478247841,508.602724933091,510.216968877965,511.373141066733,512.068103549587,512.299967857617,512.06810354954,511.373141066637,510.216968877816,508.602724932881,506.53478247813,504.01873032397,501.061347689111,497.67057377975,493.855472294689,489.626191078423,484.993917173389,479.970827549882,474.570035817103,468.805535241449,462.692138418186,456.24541396003,449.481620580664,442.417638962899,435.070901809859,427.459322483281,419.601222635753,411.515259243447,403.220351442773,394.735607568362,386.080252781048,377.273557663189,368.334768144798,359.283037107845,350.137357997796,340.916500751244,331.638950326544,322.322848100902,312.985936372623,303.645506181429,294.318348633128,285.020709887738,275.768249942581,266.576005314254,257.458355695773,248.428994637989,239.500904277677,230.686334108719,221.996783767769,213.442989781798,205.034916202216,196.781749028856,188.691894307297,180.772979764668,173.031859832531,165.474623890538,158.106607551533,150.932406797506,143.955894766396,137.180240982176,130.607932814854,124.240798953055,118.080034669548,112.126228659471,106.379391232001,100.838983638658,95.5039483253414,90.3727399003678,85.4433566171952,80.7133721779641,76.1799676724623,71.8399634764026,67.6898509429422,63.7258237320123,59.9438086331667,56.3394957491728,52.9083679193507,49.6457292736018,46.5467328200655,43.6064069812861,40.8196810055904,38.1814091919691,35.6863938780577,33.3294071517432,31.1052112574337,29.0085776780512,27.0343048833103,25.1772347437761,23.432267618533,21.7943761320167,20.2586176626385,18.8201455722733,17.4742192114668,16.2162127403611,15.0416228098442,13.9460751513071,12.925330126669,11.9752872930188,11.091989038352,10.2716233464823,9.51052575030237,8.80518053320078,8.15222123863697,7.54843054767191,6.99073958368573,6.47622670261805,6.00211582587867,5.56577437163118,5.16471083848248,4.79657209375136,4.45914041646948,4.15033034311883,3.86818536185816
62.4584282708125,66.34235085534,70.4085997327179,74.660904189225,79.1027018521366,83.7371079910194,88.5668844644462,93.5944084643884,98.8216412209729,104.250096840127,109.880811455743,115.714312886279,121.750590993039,127.989068943644,134.428575589275,141.067319168106,147.902862549743,154.932100236461,162.151237336398,169.555770721687,177.140472580529,184.899376566609,192.825766741788,200.912169498816,209.150348639776,217.53130377318,226.045272178077,234.681734267286,243.42942276394,252.276335686075,261.209753213065,270.216258485429,279.281762366044,288.391532166278,297.530224315073,306.681920922901,315.830170165803,324.958030387737,334.048117792346,343.08265756828,352.04353826554,360.912369214245,369.67054075193,378.299287001255,386.77975091701,395.093051299794,403.220351453964,411.1429291495,418.842247531662,426.300026608729,433.498314937,440.41956111367,447.046684682327,453.363146052706,459.35301503611,465.001037600576,470.292700455434,475.21429308346,479.752966850193,483.896790834273,487.634804039625,490.95706367,493.85468916849,496.319901749202,498.346059174916,499.927685563222,501.060496034023,501.741416043204,501.968595280426,501.741416043158,501.060496033929,499.927685563075,498.34605917471,496.319901748927,493.854689168133,490.957063669545,487.63480403905,483.896790833552,479.752966849293,475.21429308234,470.292700454044,465.001037598854,459.353015033981,453.363146050077,447.046684679084,440.419561109673,433.498314932079,426.300026602677,418.842247524227,411.142929140374,403.220351442773,395.093051286085,386.77975090023,378.299286980737,369.670540726864,360.912369183653,352.043538228237,343.082657522838,334.04811773704,324.95803032049,315.830170084112,306.681920823756,297.530224194859,288.391532020655,279.281762189807,270.21625827234,261.209752955662,252.276335375434,243.429422389401,234.681733816129,226.04527163514,217.531303120405,209.150347855681,200.912168557866,192.825765613667,184.899375215358,177.140470963537,169.555768788512,162.151235027388,154.932097481144,147.902859264948,141.06731525577,134.428570933899,127.989063409325,121.750584420029,115.714305086991,109.880802210122,104.250085890291,98.8216282650193,93.5943931492366,88.5668663775824,83.7370866509827,79.1026766975682,74.6608745662767,70.4085648805921,66.3423098897013,62.4583801647811,58.7527847990375,55.2213009814043,51.8595028253515,48.6627893459491,45.6264114900847,42.7454981364382,40.0150809933951,37.4301183344382,34.9855175216304,32.6761562785153,30.4969026840558,28.4426338690546,26.5082534058094,24.6887073905068,22.9789992260287,21.3742031204081,19.8694763231072,18.4600701276017,17.141339674421,15.9087525938386,14.7578965318146,13.6844856066003,12.6843658466186,11.753519662872,10.888069411216,10.084280101402,9.33856131087052,8.64746836189237,8.00770282084697,7.41611237822758,6.86969016740799,6.36557357932728,5.90104262908588,5.47351792902985,5.08055832126462,4.71985822071697,4.38924471788551,4.08667448831334,3.81023055361132
61.1619771565632,64.9639693060952,68.9444416181392,73.1070447105555,77.4551436946792,81.9917881241971,86.7196815969237,91.6411511585239,96.7581166674357,102.072060289877,107.58399630274,113.294441390274,119.20338562766,125.31026435066,131.613931115564,138.112631957342,144.803981156294,151.68493872444,158.75178982227,166.000126314343,173.424830668322,181.020062396566,188.779247232075,196.695069221589,204.759465907853,212.963626760523,221.297995000955,229.752272950189,238.315431011919,246.975720383171,255.72068956495,264.537204723274,273.411473928062,282.329075273287,291.274988856921,300.233632573578,309.188901646663,318.124211800391,327.022545945505,335.866504226129,344.638357249049,353.320102291247,361.893522256718,370.3402471299,378.641817650521,386.77975091365,394.735607579316,402.491060358545,410.027963427196,417.328422405681,424.374864531788,431.150108645435,437.637434598426,443.820651699269,449.684165802858,455.213044657453,460.393081126844,465.210853913946,469.653785423228,473.710196413311,477.369357107764,480.621534451285,483.458035220232,485.871244720373,487.854660830923,489.402923181925,490.511837281822,491.178393443286,491.400780387839,491.178393443241,490.511837281731,489.402923181782,487.854660830721,485.871244720104,483.458035219882,480.621534450839,477.369357107201,473.710196412605,469.653785422347,465.21085391285,460.393081125483,455.213044655768,449.684165800775,443.820651696695,437.63743459525,431.150108641522,424.374864526971,417.328422399757,410.027963419918,402.491060349612,394.735607568362,386.77975090023,378.641817634095,370.340247109814,361.893522232182,353.3201022613,344.638357212533,335.866504181645,327.022545891366,318.124211734561,309.188901566695,300.233632476525,291.274988739243,282.329075130736,273.411473755542,264.537204514681,255.720689312977,246.975720079083,238.31543064528,229.75227250855,221.297994469471,212.963626121519,204.759465140298,196.695068300489,188.779246127752,181.020061073819,173.42482908544,166.000124421948,158.751787561968,151.684936027246,144.803977940791,138.112628127536,131.613926558392,125.310258933086,119.203379193306,113.29443375551,107.583987252152,102.072049571026,96.7581039847849,91.6411361664416,86.719663891598,81.9917672343234,77.4551190707405,73.1070157124963,68.9444075012107,64.963929204617,61.1619300653172,57.5345033637592,54.0775153680847,50.7866335548009,47.6573539956746,44.6850278177536,41.8648866548787,39.1920670203802,36.661633541778,34.2686010091367,32.0079551992189,29.874672447657,27.8637379509764,25.9701627894208,24.1889996700909,22.5153573979118,20.9444140893414,19.4714291505275,18.0917540477947,16.8008419038928,15.5942559583701,14.4676769347594,13.4169093609811,12.4378868925133,11.526676690455,10.6794829086544,9.89264934560528,9.16266131786909,8.48614681238456,7.85987697521384,7.28076599407911,6.74587043149964,6.2523880644805,5.79765628556495,5.37915011867601,4.99447990157168,4.64138868495455,4.31774939633897,4.02156181471769,3.75094939991059
59.8394570517339,63.5578713121438,67.4508422668821,71.521940283529,75.7744564993318,80.2113734306843,84.8353352431382,89.6486178277116,94.6530988392533,99.8502278620297,105.240996876431,110.825911208616,116.604961151938,122.577594454979,128.742689875909,135.098532006508,141.642787571536,148.372483410024,155.283986344505,162.372985142067,169.634474767331,177.062743122093,184.651360459208,192.393171649507,200.280291469966,208.304103069109,216.455259751677,224.723690209055,233.098607304767,241.568520505746,250.121252030027,258.743956760195,267.423145949437,276.144714723538,284.893973357823,293.655682282985,302.414090748207,311.152979044148,319.855704162389,328.505248742114,337.084273129279,345.57517034855,353.960123764094,362.221167182099,370.340247125879,378.299286993863,386.080252791762,393.665220113109,401.036442027191,408.176417520428,415.06796012661,421.694266373203,428.038983665293,434.086277225806,439.820895710378,445.228235117834,450.294400622567,455.006265963263,459.351530033356,463.318770332226,466.897492952433,470.078178797095,472.85232574272,475.212486486289,477.152301840906,478.666529271789,479.751066493449,480.402969979482,480.620468268125,480.402969979439,479.751066493359,478.666529271649,477.152301840709,475.212486486026,472.852325742379,470.078178796659,466.897492951883,463.318770331535,459.351530032494,455.006265962191,450.294400621237,445.228235116186,439.82089570834,434.086277223289,428.038983662188,421.694266369376,415.067960121899,408.176417514634,401.036442020073,393.665220104372,386.080252781048,378.299286980737,370.340247109815,362.221167162455,353.960123740097,345.575170319262,337.084273093566,328.505248698608,319.855704109439,311.152978979766,302.414090669997,293.655682188066,284.893973242733,276.144714584121,267.42314578071,258.743956556188,250.121251783593,241.568520208342,233.098606946188,224.723689777124,216.455259231877,208.304102444152,200.280290719284,192.393170748655,184.651359379161,177.062741828424,169.634473219245,162.372983291272,155.283984133891,148.372480772121,141.642784426718,135.098528260892,128.742685418916,122.577589156498,116.604954859028,110.825903741685,105.2409880248,99.8502173788068,94.6530864354009,89.6486031651952,84.8353179270226,80.2113530000256,75.7744324166926,71.5219119229242,67.4508088999344,63.5578320922027,59.8394109956787,56.2917247708859,52.9107305563755,49.6921910690322,46.631701388932,43.7247148377022,40.9665678705408,38.3525039131373,35.8776960856117,33.5372687661881,31.3263179575789,29.2399304289063,27.2732016154006,25.4212522670168,23.6792438454982,22.0423926772332,20.5059828764916,19.0653780602694,17.7160318820125,16.4534974169131,15.2734354363028,14.171621612887,13.1439527022097,12.1864517488054,11.2952723680216,10.4667021564904,9.69716528572881,8.98322433437865,8.32158141518497,7.70907865299836,7.14269806989368,6.61956093296658,6.13692661952891,5.69219105331023,5.28288476391642,4.90667062023078,4.56134128669804,4.24481644953728,3.95513985791348,3.69047622298553
58.4938124609956,62.1271874588703,65.9311270803905,69.9091200396667,74.0643822064086,78.3998278875595,82.9180407772244,87.6212447173274,92.5112744211911,97.5895463214295,102.857029712074,108.314218362592,113.961102788326,119.797143367718,125.821244501477,132.031730012366,138.426319986603,145.002109258712,151.755547741146,158.682422797877,165.777843857513,173.036229456195,180.451296893591,188.016054676657,195.722797915572,203.563106824233,211.527848464111,219.607181855058,227.790566559881,236.066774831311,244.423907390402,252.849412884563,261.330111051458,269.852219592041,278.401384732196,286.962715427994,295.520821144597,304.059853113615,312.56354894833,321.015280470979,329.398104581343,337.694816971485,345.888008467859,353.960123759291,361.893522247879,369.67054073969,377.273557673658,384.685058570291,391.887702367021,398.864388294345,405.598322936509,412.073087112456,418.272702207286,424.181695581562,429.785164685592,435.068839508286,440.019142995441,444.623249080262,448.869137979606,452.745648422767,456.242526495507,459.350470800458,462.061173655699,464.367358076287,466.262810308438,467.742407712914,468.802141822531,469.439136428646,469.651660582409,469.439136428603,468.802141822444,467.742407712777,466.262810308246,464.367358076029,462.061173655365,459.350470800031,456.242526494969,452.745648422092,448.869137978764,444.623249079214,440.019142994141,435.068839506676,429.785164683601,424.181695579102,418.272702204251,412.073087108717,405.598322931906,398.864388288684,391.887702360065,384.685058561754,377.273557663189,369.670540726865,361.893522232182,353.960123740097,345.88800844441,337.694816942867,329.398104546447,321.015280428469,312.563548896592,304.059853050705,295.520821068175,286.962715335245,278.401384619738,269.852219455812,261.330110886589,252.84941268522,244.423907149604,236.066774540709,227.790566209503,219.607181433005,211.527847956198,203.563106213568,195.722797182058,188.016053796407,180.451295838244,173.036228192112,165.777842344831,158.682420989409,151.755545581088,145.002106681138,138.426316913706,132.031726352411,125.821240146414,119.797138190412,113.961096639333,108.314211066427,102.857021062877,97.5895360779554,92.5112623010118,87.6212303901392,82.9180238571243,78.3998079241451,74.0643586745338,69.9090923276623,65.9310944765371,62.1271491358801,58.4937674582315,55.0272159858181,51.7235443164847,48.5786120727876,45.5881150742892,42.7476106240851,40.0525418315499,37.4982609041127,35.0800513515048,32.7931490562778,30.632762174412,28.5940898394687,26.6723396529244,24.8627439520391,23.1605748547918,21.5611580890654,20.0598856203305,18.6522270985759,17.3337401511275,16.1000795533055,14.9470053135839,13.8703897140432,12.8662233504663,11.930620219427,11.0598219021884,10.2502008971771,9.49826315426949,8.80064986512815,8.15413856440659,7.55564359681985,7.00221600489053,6.49104289166102,6.01944631184164,5.58488174377586,5.18493619327864,4.81732597887407,4.47989424625364,4.17060825792497,3.88755650205109,3.62894566241649
57.1279841221923,60.6750443267846,64.3886172060106,68.2721085957653,72.3286579692594,76.5611104008901,80.971988206286,85.5634623975761,90.3373241024633,95.294956104657,100.437304671549,105.764851842576,111.277588358396,116.974987416752,122.855979445512,128.918928086859,135.161607588856,141.581181801407,148.174184973173,154.936504543898,161.863366123058,168.949320840568,176.188235248504,183.573283944383,191.096945076459,198.750998879848,206.526529378955,214.41392937687,222.402908836002,230.482506736488,238.641106479755,246.866454884307,255.145684799344,263.465341339393,271.811411719926,280.169358650034,288.524157213852,296.8603351478,305.162016395928,313.412967801006,321.596648764672,329.696263686125,337.694816965758,345.575170338,353.320102276624,360.912369196173,368.334768155018,375.570200749266,382.601737872237,389.412685001896,395.98664766843,402.307596746368,408.359933210268,414.12855199015,419.598904562674,424.757059916456,429.58976353505,434.084494048895,438.22951721793,442.01393691963,445.427742832695,448.461854524615,451.108161671531,453.359560161227,455.209983854434,456.654431805802,457.688990773668,458.310852876868,458.518328287132,458.310852876826,457.688990773583,456.654431805668,455.209983854246,453.359560160976,451.108161671205,448.461854524199,445.42774283217,442.013936918971,438.229517217108,434.084494047872,429.589763533781,424.757059914884,419.59890456073,414.128551987749,408.359933207306,402.307596742718,395.986647663936,389.41268499637,382.601737865447,375.570200740931,368.334768144798,360.912369183653,353.3201022613,345.575170319261,337.694816942867,329.696263658186,321.596648730604,313.412967759505,305.162016345419,296.860335086385,288.524157139245,280.169358559488,271.811411610139,263.4653412064,255.145684638393,246.866454689701,238.641106244677,230.482506452789,222.402908493948,214.413928964843,206.526528883108,198.75099828369,191.09694436037,183.573283085044,176.188234218229,168.949319606514,161.863364646312,154.936502778392,148.174182864429,141.581179285065,135.161604588959,128.918924513851,122.855975193908,116.974982362439,111.27758235548,105.76484471974,100.437296227824,95.2949461045279,90.3373122702121,85.563448410746,80.9719716881414,76.5610909117285,72.3286349964099,68.2720815420899,64.3885853766974,60.6750069141988,57.1279401885181,53.743740434251,50.518551095362,47.4483301535981,44.5288756790308,41.7558505158755,39.1248060274229,36.6312048344932,34.2704424921979,32.0378680599041,29.9288035290833,27.9385620831245,26.0624651721682,24.2958583945121,22.6341261841392,21.0727053113737,19.6070972105819,18.2328791551676,16.9457143058734,15.7413606635801,14.6156789623934,13.5646395428433,12.5843282484911,11.6709513921681,10.8208398404814,10.0304522671213,9.29637762694282,8.61533690377076,7.98418418544414,7.39990711979104,6.85962680504125,6.36059716767806,5.90020387992836,5.47596286802799,5.08551846110544,4.72664122903367,4.39722555593508,4.09528699421758,3.81895944209663,3.56649218554298
55.7448985556222,59.2045533803589,62.8266177343815,66.6144135282036,70.5710028732679,74.6991607366733,79.0013472800551,83.4796800182436,88.1359059426178,92.9713737628293,97.98700642869,103.183274101393,108.560167749763,114.117173552815,119.853248294426,125.766795939322,131.85564558174,138.117030958975,144.547571721484,151.14325664924,157.899429000529,164.81077417436,171.871309861026,179.074378847149,186.412644631748,193.878089998422,201.462018675837,209.155060204167,216.947178109221,224.82768146864,232.785239935887,240.807902267952,248.88311838173,256.997764942187,265.138174462787,273.290167875305,281.439090502441,289.569851342562,297.666965551768,305.714599984442,313.69662162969,321.596648757855,329.398104568774,337.084273111842,344.63835722748,352.043538240449,359.283037117813,366.340176788388,373.198445306444,379.841559530343,386.253528976891,392.418719504554,398.321916473456,403.94838702731,409.283941142247,414.314991089849,419.028608966689,423.412581950283,427.455464951488,431.146630346105,434.476314483566,437.435660688108,440.01675848755,442.212678826652,444.017505045762,445.426359431025,446.43542516947,447.041963570726,447.244326446666,447.041963570685,446.435425169386,445.426359430894,444.017505045578,442.212678826407,440.016758487232,437.435660687702,434.476314483054,431.146630345463,427.455464950686,423.412581949285,419.028608965451,414.314991088316,409.283941140351,403.948387024968,398.321916470567,392.418719500994,386.253528972507,379.841559524952,373.198445299821,366.34017678026,359.283037107845,352.043538228237,344.638357212533,337.084273093566,329.398104546447,321.596648730604,313.696621596462,305.714599943964,297.666965502503,289.56985128266,281.439090429674,273.290167786991,265.138174355706,256.997764812472,248.883118224744,240.807902078141,232.785239706602,224.827681191932,216.947177775596,209.155059802293,201.462018192209,193.878089416955,186.412643933305,179.074378008986,171.871308856138,164.810772970716,157.899427560172,151.143254927239,144.547569664703,138.11702850464,131.855642655765,125.766792454357,119.853244147589,114.117168623048,108.560161894769,103.183267154075,97.9869981930319,92.9713640091197,88.1358944019327,83.4796663760718,79.0013311689446,74.6991417277566,70.5709804665072,66.6143871411751,62.8265866893948,59.2045168896806,55.7448557045458,52.4440481815821,49.298332796619,46.3037671333609,43.4562528043231,40.7515595283517,38.1853482904406,35.7531935198733,33.4506042328337,31.2730440954926,29.2159503731225,27.2747517399593,25.4448849332836,23.7218102434834,22.1010258396568,20.5780809375901,19.1485878236833,17.8082327545758,16.5527857578413,15.3781093641745,14.2801663059804,13.2550262212063,12.2988714046462,11.4080016518042,10.5788382427508,9.80792711526359,9.09194127794337,8.42768251495029,7.81208243455771,7.24220291389078,6.71523599203972,6.22850326324223,5.77945482104847,5.36566780334516,4.98484458685388,4.63481067826169,4.31351234751896,4.01901404707637,3.74949565895732,3.50324960959705
54.3474579200188,57.7188001829496,61.248406243202,64.939513214845,68.7951050446144,72.8178858646658,77.0102530375438,81.3742700255307,85.91163922559,90.6236749196601,95.5112764979591,100.574902120153,105.814542985601,111.229698389322,116.819351744753,122.581947757669,128.515370937733,134.616925634993,140.883317788088,147.310638569031,153.894350105999,160.629273460676,167.509579030235,174.528779536046,181.679725751647,188.954605111378,196.344943328477,203.841609137302,211.434822258802,219.114164671465,226.868595251809,234.686467829133,242.555552678877,250.463061457617,258.395675560659,266.339577860464,274.280487761008,282.203699479728,290.094123445174,297.936330675069,305.714599976343,313.41296778606,321.015280450226,328.505248716418,335.86650419621,343.082657534738,350.13735800751,357.014354249072,363.697555804363,370.171095181867,376.419390077995,382.427205434695,388.179714987199,393.662561956126,398.861918537953,403.764543850164,408.357839992274,412.629905891294,416.5695886101,420.166531809567,423.411221070059,426.295025794934,428.810237437958,430.95010381778,432.70885930582,434.081750698739,435.065058613093,435.656114267438,435.853311545973,435.656114267399,435.065058613011,434.081750698612,432.708859305641,430.950103817541,428.810237437648,426.295025794539,423.41122106956,420.166531808941,416.569588609318,412.629905890322,408.357839991068,403.764543848669,398.861918536105,393.662561953844,388.179714984383,382.427205431225,376.419390073724,370.171095176614,363.697555797909,357.01435424115,350.137357997796,343.082657522838,335.866504181645,328.505248698608,321.015280428469,313.412967759505,305.714599943963,297.936330635624,290.094123397167,282.203699421356,274.280487690098,266.339577774404,258.395675456311,250.463061331213,242.555552525898,234.686467644167,226.868595028377,219.11416440182,211.434821933692,203.841608745687,196.344942857194,188.954604544753,181.679725071033,174.528778719278,167.509578050998,160.629272287756,153.894348702409,147.310636890986,140.88331578381,134.616923243309,128.515368086449,122.581944361663,116.81934770377,111.229693585394,105.814537280064,100.574895350176,95.5112684725278,90.6236654149277,85.9116279794972,81.3742567315946,77.0102373376921,72.8178673409784,68.7950832098178,64.9394875013825,61.2483759906822,57.7187646237473,54.3474161627764,51.1308664005283,48.0654498310342,45.1473246737269,42.3724971582344,39.7368449872866,37.2361399053464,34.8660693106227,32.6222568579861,30.5002820099172,28.4956985019183,26.6040516977534,24.8208948184108,23.1418040367599,21.5623924374724,20.0783228488702,18.6853195599223,17.3791789416427,16.1557789976084,15.0110878732454,13.9411713578997,12.9421994175453,12.0104517992784,11.1423227515341,10.3343249062489,9.5830923710034,8.88538308053935,8.23808045798042,7.63819443662015,7.082861893308,6.56934654429099,6.09503835388604,5.65745250559659,5.25422798427706,4.88312581671904,4.54202701661388,4.22893027826382,3.94194946169667,3.67931091001055,3.4393506378608
