613.393023896803,605.612624432213,601.128331318024,613.312648813367,650.361656873271,644.539998019184,583.967458853358,499.57977021892,483.995561393751,534.804458017846,476.86277224382,564.441176734512,515.832144244728,439.9379023884,452.490410350321,496.707377940902,558.59542653656,668.038460269405,672.715686177221,621.889514097124,633.824448452641,661.634184386892,694.424821108004,737.648831506653,877.108214834542,901.030943797496,907.919242181784,984.529051963701,1041.10344249891,1081.35394412301,1141.53487539368,1267.88873125052,1317.50801634381,1277.01990166467,1250.29601618179,1277.30064028888,1233.11769655215,1097.14011236816,1005.61532748703,987.885223129408,943.906887759445,839.342363552775,794.625140690452,750.129128739749,670.248807868429,655.823187655483,691.04646893844,728.974998488978,749.821535714151,669.51799018568,527.511676883626,449.528091683032,415.096913248817,410.845277935475,372.487477346121,302.546234027446,210.899662428815,177.748272070457,199.798864841329,246.841416568739,326.874264741082,453.987690126405,614.744174808375,752.214210498636,843.974298399883,766.574509827039,705.324552805485,742.544506543003,700.389833183467,604.133066645528,627.916894205148,732.881609219972,791.564357976208,863.693103857602,813.303704637373,700.704812100242,661.500207430306,707.866279575068,671.554005308071,676.531509020835,785.619885936418,736.47711898623,663.753634157819,630.517893329719,605.131860215831,530.192583942062,513.562206991444,460.894994598244,386.78532261808,464.752663433219,518.452079225818,557.965998279567,596.277301674252,628.231408249562,672.108616262742,733.302097068253,743.948191576338,610.131605349906,605.579405185319,589.405599482383,603.279574511791,670.958403787268,583.107332133405,456.449044471259,408.60759434146,359.789112058898,343.189050800275,331.912295772258,285.434671069622,250.483988378789,268.723946452598,357.225457387975,394.112457508362,439.39196408653,463.842415203637,427.801566637476,476.026427795836,431.335739079561,377.519079299418,433.438076780989,469.331016004968,424.744981420044,401.222618980181,399.560917512441,429.383374302648,443.794785751587,485.877796763917,492.859351405189,546.223414088393,521.641531091941,505.362965568849,544.03685556313,555.496938879807,484.122305571142,466.913830887935,445.843181180946,430.930325123802,419.320015123339,391.642560209157,375.45358120003,365.432704776941,379.553182389606,398.159054744721,405.308609899022,399.386739346863,387.768879792582,372.67477969358,361.552361893411,351.605266749728,340.574006551393,332.546328342547,340.228929260975,314.899907419193,307.535154268542,311.407889161011,313.706521197106,340.794729211665,362.203914430205,355.082418316692,384.699654249517,370.415146440655,348.061576269285,354.791308644121,358.930160121953,353.298168185011,353.645885408599,359.792680129093,378.906977170718,390.221721220277,376.536517652707,355.387975049429,350.137804006327,352.280734564556,368.965009141391,386.229749130991,405.466846682472,414.944453262265,400.920050933807,387.386848205383,409.347515512594,453.535355409554,460.644523392696,427.334018926049,409.690921226883,396.415635445777,391.577090378417,394.170249245637,401.525311524934,413.558407260805,423.361007463375,438.776800782635,445.423602043286,443.460057642964,454.378745260897,475.986656695175,488.578531581071,499.571798249161,508.582326079174,516.117954204289,525.909862287718,528.907731413214,560.789191079203,601.903829410468,629.161984136341,655.24331382219,684.717856446902,687.82479362098,683.846423865431,661.249212745277,583.236156963854,536.809401463594,507.22257011331,547.360114981567,583.04160845998,595.529549525927,605.809505581369,614.769427670521,612.862030150275,598.518228202611,577.895797367482,557.365888079509,541.015721863055,541.102427265055,546.414534534698,595.863286942598,635.603733947897,642.022151762911,596.464282355126,576.050731250451,597.184232950066,606.02110221374,603.390799642574,583.192871293268,579.291972932461,621.057193687535,668.640980275946,727.788559342339,803.454370982942,797.529796286483,719.625974789014,634.291591863627,657.897251180453,754.392382899376,770.877607162646,734.011221641973,718.687109912473,687.594106410313,711.291310110732,725.387107802667,671.096207038251,689.260438012089,688.772685696152,689.705855985087,708.937847596793,726.862325620901,712.618719551543,703.41036281846,733.931227860396,763.779982415144,779.135200538634,770.492830238743,753.795336771166,746.042733209205,727.163772452191
598.793098034774,572.20677912953,549.993253736688,591.500971122133,599.62730894892,604.676943342188,589.57308505916,503.78670880683,428.938804601574,435.111254583288,436.926111099987,435.323756009873,414.932096331959,444.4758547492,468.055634625405,565.697087169815,652.35639498929,780.075033403717,835.610966204044,825.131580265772,808.662204791114,781.109578415259,785.284450559657,795.630398342602,934.027876363901,1016.88607315814,984.811985034915,1038.79419806809,1066.96506634895,1112.37487799344,1204.34503763896,1315.05978015677,1340.78408824665,1275.77836476885,1240.13495628166,1210.99965349661,1263.32215544381,1195.42122197214,1154.2007488469,1118.63265103249,1051.87872575406,913.428423649895,823.45051952958,801.065147245496,751.654343936311,738.527503874855,790.409697815699,801.903270396881,721.249549026405,593.992467129006,496.361531868463,430.748947658569,378.125086853497,358.504943756501,328.259317632502,267.000128258425,204.524631804387,178.059925921292,196.812089908041,233.134972036177,313.309189515271,427.870494644258,573.213415509567,682.864756915802,777.396224306491,767.052870751739,667.342718503257,694.030386607127,693.12419436112,575.619635437373,576.370991010238,665.732941209897,729.680194408037,779.821065837683,807.386212361767,742.54831886084,655.840534803966,588.133977244843,591.947929563319,644.851368528567,744.769334268377,722.306350653705,679.617489965245,649.452018116837,596.712950059035,516.962307138335,412.496724229647,374.140381616222,419.909148245888,472.899112485654,468.174146038969,484.22276677991,527.310745155189,562.116132515434,599.088073094442,646.066320502928,675.774102722812,560.439104756476,505.441370298592,484.054476244251,518.832110354345,585.486380297124,603.013119431307,557.086613457988,493.862748486312,403.864600414242,359.435681717123,304.808382453007,270.691457705194,247.921732570479,271.605884882775,327.812172370967,341.731423741799,365.530214551266,389.691397422185,369.989336499536,404.249247156001,415.938190285077,364.404955180073,390.956135376804,405.097712209886,405.172597845542,380.269859508482,407.653284037172,410.33504167251,424.857900771601,450.941708747736,468.87556618443,478.393564893294,551.789893949006,566.001971811858,548.240465683807,575.451956117327,503.388423743419,500.186258608454,473.516280301774,459.900474378143,424.928522875927,454.211342226232,425.617606990679,374.369392376315,386.145321707245,416.430662565621,417.566165062375,429.777233728428,415.08800553072,376.791653923361,362.88143036766,352.112955013437,340.797578366706,325.32528121174,335.636584789309,328.196155031473,305.367477536803,310.020318541137,312.337562948395,318.790671156513,326.05637638255,332.755711640676,361.409967731655,366.900402484696,340.897776712719,344.477188707455,342.861393387807,346.543453774752,347.488483835401,349.826919833202,366.281655113329,382.002783991498,365.974689170398,352.752950487117,347.732356959633,351.870444860235,365.833250493505,384.754917295178,404.524840480121,410.589049602474,397.756641810839,382.845377111233,416.036553438259,461.171668831737,444.061185311387,424.731018423835,396.736389811281,387.966502921708,391.507627666864,395.906007729967,416.190964832207,439.381833390769,448.253947951196,465.324968719597,489.388343865633,476.473349357179,450.933255245398,464.412831145202,478.990251255346,487.752283563299,494.982761198642,506.049497172043,517.856622100743,558.495237552018,591.637377098126,604.280954018272,636.864334804658,646.301425900805,660.20949795372,651.087595534288,682.246180444579,674.664677475331,597.584968962258,526.728917235664,505.239969894656,547.082426827256,603.094806564291,595.972619646351,585.719436464155,594.121658177964,593.43374737715,594.102200405179,568.704363974591,565.553511487295,537.315090872906,529.308347361316,548.423780863082,603.099612417504,610.640210166696,617.389372579673,587.48454963003,565.701876251051,596.318851656733,595.971570269496,582.093002618303,563.964421514376,588.969084154907,645.881356744132,689.928874254937,747.150014467876,818.734971952852,792.089076748985,709.359223172466,632.929994455998,657.251181594307,739.346055434237,717.398617723375,688.131036750132,708.538836238207,674.309453301304,685.742658463369,689.37366910923,666.058920565627,680.330711933869,682.425374947333,678.105101355061,696.481775545126,717.957873638081,702.890958698334,692.076368790629,722.439937873885,726.792408303919,743.795134216381,743.057368399377,738.946769341904,721.685956623315,726.728159445933
584.266434257735,573.575649212027,521.575267041665,573.600491495245,575.492888102985,567.41823684061,568.864913723691,502.48752933522,388.936750653831,384.33705651272,394.416789767437,377.102848814097,403.836108173759,501.854851734187,587.254556036876,668.912413302585,744.912798395747,866.627382331427,950.232266507844,948.402730502941,929.401028037354,893.776296364714,852.34150891427,874.967772897507,965.344713387684,1077.26683963617,1054.18640355363,1126.3023989569,1171.79200885117,1208.56921117341,1306.98719306354,1381.72538516996,1340.61026690945,1218.59638315369,1186.97428839044,1166.48805592076,1246.53844852105,1207.24382499481,1208.94063195661,1205.40356857734,1109.12699218943,970.450125585957,908.700392742793,874.538470023482,817.927581846605,837.739296631609,834.695154097334,724.032205262619,612.479360823216,522.582976715552,459.457366297858,422.803964755862,373.022114825077,327.844475398592,286.095751476343,240.592934525901,194.069638562779,175.872517441941,202.020490318309,233.717738252777,274.243851463739,353.187720788932,460.99925419472,595.093620456995,684.752391913046,764.751945720306,669.37171083205,648.483680752341,672.17046743361,542.366185549797,594.745586163407,675.328990997849,710.210458248976,759.920982700277,719.107272080037,727.958339279613,720.559737063398,625.146621885802,532.115012798837,567.689187162662,694.473095378158,722.477127906979,658.324963131552,603.232904377778,498.476432995971,422.299900900708,367.908385780313,407.138791616796,424.312043685535,451.667193136232,494.93613712928,530.599323435068,536.434220138327,555.871974978828,588.442554258352,643.783008400853,679.53529939528,585.762096026349,524.244846591425,467.19139944362,465.855270568591,491.551169768939,570.11778289224,642.058114609634,578.346178571062,484.325919828264,405.373600157567,324.973582713677,267.810107086134,246.911957377157,270.288686565189,285.842203964951,301.020865622616,325.772028881037,345.697675508782,350.154761163971,352.880741224421,359.887659115504,362.106126678677,361.490152343104,361.390195306553,366.5514120292,377.526851932849,425.474837811851,438.147508336724,436.873931521941,436.065651675114,448.443192378431,504.45195997097,593.3575265094,607.344689926138,561.793172479268,534.626843858632,485.4513497316,481.685503441932,492.967811382473,466.233825034123,436.904585759989,457.856996702094,404.381214825409,364.498297472273,375.81704920314,394.538485861838,408.957028649923,459.472891048195,430.642647374491,394.989623446439,365.483278073015,347.327637330627,335.793216830092,321.651788592343,321.606224979129,319.023331520362,305.085170674327,308.986091444195,311.49391428932,312.494422251561,311.393952275086,316.123098213142,327.408212965247,348.313710274516,334.531328609893,328.589412940781,327.4804322568,331.959286340178,334.761125401188,342.617056968307,357.421481193321,364.450005162155,361.619156770429,350.239145898921,346.391674913576,353.269083663857,369.161281014827,386.696479554199,401.809327815283,400.624536237789,384.795005746447,380.3979792104,403.582932905281,442.089059603954,430.157634626672,409.082830975926,387.361488645681,385.310357730763,389.533439733913,404.024409014637,427.038692965294,469.937015858509,494.542827676398,503.426304722532,519.596761995788,498.416633030634,471.93603902704,472.804297726638,469.619527022912,478.426541226763,498.89262415109,515.660300642188,544.797038379999,563.239344083291,572.978041178601,583.519592794064,612.259955633324,631.968987873263,629.981256049228,636.551033840285,668.783615127554,641.6911276466,586.302460119946,514.318355692103,510.165698874352,562.153860742966,604.602764805905,576.683444225812,576.718160725187,576.627342756753,579.576924444179,599.164068997464,578.965033209991,555.814794934431,550.057070194913,527.912038052632,557.832250893804,585.605509316196,588.560930536464,614.463525934233,581.646535809311,564.440590379991,591.802848824138,581.96786344658,559.843514277727,568.314022264505,613.141239197894,665.330133096446,734.252984436519,792.573132719078,781.873834498477,746.206796936483,729.650191989763,639.865908156456,657.208283327149,699.914347434789,664.523505172666,665.6188745258,670.460276397215,640.599074627331,636.305336385684,630.973578166304,641.224038760498,662.181496716457,660.34268861438,654.231948975013,675.429954049726,702.603752936427,688.423314427637,674.488550414559,694.218468899986,724.723115257131,754.199670190939,720.606964346432,720.475013449134,708.621480420332,717.159816423744
563.253139270939,550.441474745092,519.050943045763,577.91631239147,581.916427010393,558.482318057568,483.312109339739,420.604804662042,356.16891830504,357.641118716407,375.297952335055,432.997571311943,500.203566552239,591.723626971053,707.824718094222,796.339995891479,823.784845177391,919.781834995187,982.553030643008,989.989529767903,984.990646235814,967.833703282842,951.449242654822,981.9597687329,1056.43929891055,1153.76269291876,1161.97451775247,1232.94604981337,1309.89704639646,1337.80487900582,1375.41326498761,1451.31591134269,1379.34784295468,1214.94054245634,1108.2226303783,1099.83771735815,1157.10624295985,1066.67563647879,1086.99596645745,1234.85268520208,1201.60648848631,1080.92845042281,1033.13474095935,956.045547135705,907.450931869103,877.854603572588,753.182447846808,620.46449153919,535.368517604776,471.434608327286,424.703154223002,385.206615074991,353.435968224845,305.489443458832,264.413952354406,217.58113109059,179.17529033559,175.110189113953,198.961684382584,254.330220082688,280.820977585417,313.588998525974,433.686829409178,600.246106417486,730.344190096032,800.80160560364,648.935424749138,573.213702388275,590.883338938726,514.356483693084,582.61433057355,656.833638836826,717.358600336757,737.872394733184,681.348943999108,673.041853537148,649.307935279942,637.496042979895,559.386882942102,514.663626681456,607.984029950665,674.181506037129,613.522271397395,541.723507878576,487.602689335828,368.0704916375,369.442478565758,508.082177560148,530.958050549082,565.167752018707,567.755241235998,602.964008126844,654.679657880445,678.457422369452,690.496871643406,703.574336213087,719.629536000602,652.016152716767,574.011998911677,487.37184820244,423.8376812825,464.069408026437,539.412491694492,594.559494907721,572.95838024571,498.903135724452,385.671256223495,305.945901146191,257.015300139761,248.819916515311,258.335065528647,281.237129002397,282.497566065271,296.507261681586,320.893724946745,349.025620109551,327.230475277318,330.094433195728,341.675808573502,343.412763605718,353.003786155533,362.029851575145,403.105030373988,455.553700173171,493.990654502528,489.44825800596,480.907808691085,478.374645210012,510.819226306427,537.828048634726,557.898212880574,522.159534083698,467.850126406688,432.103697953187,411.530240352934,455.91871620505,479.012819741192,475.07342184395,413.534627391772,385.054462617493,359.605888395097,359.780763644302,388.086170756458,430.98736325205,433.22568939747,397.326885798392,390.14726700544,391.173904189292,361.097583220174,332.132614816831,323.410321293186,311.641229822066,308.823128465095,305.362091781133,308.177765869899,309.283965640642,310.05135854929,310.87578478244,314.1401733946,319.075394149043,327.726777429757,325.550450769672,323.802704323289,324.264861910122,326.179311562759,330.623696597231,335.270151225789,342.580871757168,356.118626038515,356.622910339388,345.4113508376,346.695603373989,357.72644130943,370.541957070577,393.416333788334,408.732238161114,407.385965996886,388.777018192001,378.459410497592,386.828584505678,414.410843362785,413.433537680013,390.51577081567,380.232900967991,383.697711459573,398.390303023317,438.761911348606,464.225375902475,488.171564446956,523.858435347016,504.213524262908,521.83016089927,522.159124176711,511.339012273751,517.835287867451,503.830479392095,499.092914386505,524.287837613691,540.521821871055,537.00005946552,537.1092761578,544.729867853994,570.621404484257,602.048075133384,612.231830640122,613.633133072212,614.902910072559,648.142840130258,606.611734615018,550.385012325538,500.762516671769,513.385897893313,569.225886263908,599.332112303903,559.780478517635,564.539134096049,557.946305962025,559.588289832448,582.06375697659,578.56224303937,545.42499396805,540.725276722475,527.451219903241,561.89220455663,560.33409391743,589.910358595544,614.117724577753,566.882457670011,562.662245895553,572.408866358431,557.252140896291,546.519922056366,587.373369427557,639.298860556535,692.029587608357,770.284343363986,772.404457922004,722.477597566593,696.64193921532,683.782507935766,642.739318042762,640.2315280033,647.601463299518,611.630034596363,622.871679589266,629.368035113004,615.777554757971,621.607782311319,636.946685302901,632.445183546961,638.040451885372,641.618382958949,647.214804684387,652.301306267968,662.260356210246,658.797551120269,660.016302528132,674.855994557453,704.409001495451,709.518427760915,692.351600281532,699.164801979894,694.002038100556,697.798144915552
541.548208481594,528.80687052015,495.182009049194,532.428826424825,538.748859979715,521.266985224829,441.358077896875,350.41574473151,348.666114616671,416.460547506509,454.041952760072,566.649514844181,649.17025730765,714.286072350813,781.603164473651,921.832248995518,942.882393079248,1023.81449514258,1084.07473951491,1110.25904110718,1081.06765521891,1096.71668036277,1096.53398137898,1124.66505250001,1166.16645529804,1249.94662895322,1306.29232953684,1371.18692628865,1417.00776193113,1389.5683041331,1283.75114510751,1328.29844961515,1380.68475383794,1289.54903861765,1135.11455879361,1044.49087701345,1075.15267689453,987.523317808234,1020.74353506184,1214.40763523344,1232.25713277092,1132.52016156351,1039.68399022293,1009.75835031451,932.001307170135,783.68775643218,653.72569015553,566.325080413209,505.831867140585,457.479163697262,410.170661893288,373.390820626554,339.004610587589,288.235725867165,235.379690238067,193.453144620504,174.753490482556,173.629628710113,193.680668947853,230.885643411507,271.82129648333,339.767078364317,442.562792741982,581.614053243063,710.605488266472,790.281067995704,674.330482529416,531.446013529914,502.453358050816,538.486853194431,651.538277881,625.277423286065,666.060113347552,677.690007383995,622.338885539752,668.445413957772,590.2129766357,537.247403405515,525.862741358123,479.351099315275,526.012740452946,605.112991964974,524.816546028374,447.307676561033,405.014809348037,349.115845006184,405.053591508738,465.921215431088,475.745423769882,593.688639517662,623.972345205147,634.142749200854,693.378188137315,706.081764592658,730.10565266353,709.014171307164,683.986495953428,643.011268665268,575.159666764278,549.377007385498,469.191395721248,440.257988693991,464.41567791189,515.212387719254,500.303638811173,456.177970926214,371.148090171803,301.580101264126,248.405512066385,249.945703107242,259.687304618977,296.814646023999,313.315261593659,302.769380444006,300.067692473908,311.16034793914,318.385221110721,328.795253170582,359.278271508529,389.062789854438,411.925044510002,407.584854263691,399.487467143304,473.658198611707,547.966118814562,552.552312085079,543.993484790031,541.763155967566,514.203540390938,478.702360629795,496.324345500291,465.521372783429,425.882929987497,401.190603096509,386.928829554231,434.57044679881,470.152240062968,456.08569198407,425.213779399459,366.67358293879,348.408772245913,390.21833886113,447.43034316815,453.276066691453,406.989341438515,387.558529542906,363.369128532334,370.328760603887,364.669319250243,332.501168596543,323.04950140528,309.244776686623,302.55513133021,303.182185965696,308.174688782293,306.448907502596,307.289728798888,308.856760521387,312.656225633865,317.011496680347,319.399232018609,322.671289314973,324.300537350954,325.802350377155,327.050565587348,331.523770237004,333.980030376846,338.852935302786,348.26072771272,349.321003295397,343.090267897735,349.229042431366,362.116325041151,372.91413241934,401.765582739124,418.087005150908,419.207005363458,400.694478942277,375.448396117674,381.470241860045,408.052566973069,404.414943704264,379.708769323232,379.522459445358,390.017769072905,413.893099982646,462.129632430379,498.321615705426,489.690290391798,496.736534510467,486.5942642989,511.005360086971,520.22609724976,510.370166013977,524.114712059707,540.854334755511,529.133566079448,550.332615722856,559.037387030923,513.597439207419,509.912081633984,524.132940594214,573.592747139299,586.971267181752,589.687342746446,589.633424512953,594.250101331327,602.56991946973,572.100958206332,512.521144137758,491.703326933029,516.069202332007,563.105908725769,591.927396221869,557.693093867715,545.480274201582,543.790946970945,541.790059447634,551.127475137879,560.51627783325,550.976022208901,526.550525771766,521.477503047895,552.732234279902,555.399569059216,593.536248909279,569.023231250932,542.095768812824,560.342651743421,550.944629271157,533.058498162899,554.137505371588,614.466547641017,688.138528740122,757.10177715849,788.267133803977,704.999860900145,652.204538391767,652.020815515127,616.886204755318,608.840980462186,597.313582310224,599.883358432266,612.598952306063,605.868989794844,610.670832747741,626.220153799948,668.521959163718,670.246494683112,655.095073110656,633.484461570445,645.301621608359,652.11595406974,661.266713165043,667.458052311067,679.98779728544,689.025125850325,669.704223793475,672.327815551603,674.388595015364,679.049205516959,686.472409538854,694.093797939484,703.078231370675
518.350383767359,543.579694949733,453.919843919551,443.480160528688,426.493870942717,411.83224952203,386.628775320362,330.475433359369,371.650455771002,520.056739365564,605.560173956602,702.831458009578,782.930891063051,828.314760871872,849.930802805705,964.563254901626,1028.29462626552,1074.57124471867,1143.5779184099,1205.5615938645,1205.11137832567,1241.2305655887,1234.40468920877,1275.02902735784,1297.43282878569,1361.01845030222,1433.4102871344,1457.93294943131,1417.05285010828,1328.20236292737,1194.92494462386,1170.16433058393,1316.20487695002,1348.02776992591,1183.77968760952,1017.1157327697,966.301607124569,908.136750399051,936.857153117857,1119.58214364714,1200.58655225639,1171.04930494963,978.649939174069,911.154914618552,828.558153267111,706.696391444197,579.218735935052,503.034032564799,464.907216182566,434.031333390961,396.777581023365,364.980386980401,332.077472166006,297.790876477267,245.570436421448,187.936446563931,172.971663283966,171.454694444454,191.454850851601,214.839481099572,247.073963536922,300.373711306618,375.9851166547,505.775131716146,626.188425723479,732.774645095616,707.328098166999,545.839622309053,460.311434015788,514.086007300044,629.250630392882,628.522409584131,595.889427204057,618.458078897375,574.094886173222,628.821272566257,596.631347255166,498.122492227168,468.014138620145,467.493245761222,541.034664607751,603.39339839308,561.659069068,510.702888421756,453.989832733434,370.527711033568,319.503996105451,344.219973900314,403.593843315106,500.516870022891,613.726195495694,716.068427413406,687.821204267752,613.192603685047,613.717638219374,622.676303173853,607.717137156907,643.848033448325,622.935011569273,531.269716306008,439.718082693011,382.061069215336,407.069790888559,474.667656554153,436.937830346813,397.982529423952,351.351597939909,319.028257495931,245.275445113772,251.841083574842,259.644902161976,283.250184258265,363.132693392252,378.877153702073,324.53100302629,325.080941550794,366.110178457692,376.455648914676,347.379537823316,412.048815983246,486.536730311132,463.375183136836,420.217080389997,453.921086607466,516.72118917613,548.747754309248,530.326897507339,504.649822237337,478.311836849272,428.606575211167,441.013821975907,418.34040921963,392.570616283492,382.946325481323,374.225772538345,391.855957562183,418.708003845236,449.252003586933,470.144509890298,382.126218667141,350.156631000349,415.810312788018,407.202647236365,380.750544229325,375.703852838746,380.835466345803,352.412531958819,343.920273240305,337.925805169693,330.93165953712,315.553407499507,301.681004679608,300.948468200765,303.434134825095,303.063861862436,301.460143122407,303.971822658975,308.070813934929,309.602645445737,313.821579484832,318.267034508049,322.273765783705,323.738345821691,327.732933545856,329.035772634913,330.536255782544,333.930817814432,338.847351534421,342.006488449349,342.840478151838,343.340993001832,346.47599019894,362.992927356665,381.244158235319,404.48350555928,416.314014686017,411.993082172706,396.111093092594,373.165661181739,380.397568226394,410.612255677947,395.932795193901,375.782147375261,384.950865272859,411.260160870235,443.877877213228,482.206693049025,493.288052274846,477.976169199017,484.787690819512,469.997930615635,493.584140129206,494.616669531166,490.258071573211,499.969546023996,514.148278302173,529.680782075111,543.610683931594,548.239435742474,496.260759931859,488.619551971752,523.643674779486,556.186246933151,562.99863630862,561.819920712908,571.776584334751,588.821234826231,544.229411133112,524.708255592775,491.773842396247,500.963114687269,531.229412730174,567.13833135916,566.855426125231,541.93397374279,541.398831136246,538.942023957509,526.662917021798,533.545928373179,541.046117064985,555.830964257295,532.648587309753,514.202578118901,529.625632920494,559.279303669943,578.148554106726,540.43659788973,534.74565428416,540.147883634792,527.320051599826,523.690553729785,552.956821607782,623.227435198274,684.238284793285,737.131604303708,731.077365675703,663.432535189301,613.489889748714,601.711419948086,583.495910214066,591.954656637655,624.934603948043,643.320460791494,654.663281979673,621.145901295785,640.116721610547,703.412975970416,760.164822672153,705.731190123708,687.757003406474,681.958992010883,710.976147503692,701.859023724555,687.052661283884,694.359447645183,709.743046097189,732.922558239005,710.640660105126,720.168733241815,699.271139982792,698.010767822262,703.772573801007,720.400894621792,757.975746149615
521.09752719288,571.526080180162,522.166302467,445.809638047409,422.585891586107,392.983513799261,335.972564528947,318.563468826835,364.181584887503,487.210988343222,608.346629126869,721.177699344025,767.654342627449,803.543164422961,873.927346056993,902.336189564978,957.25064866109,955.460192885132,1016.64844543942,1133.57542489888,1256.51883906955,1335.6847700704,1346.25672919247,1369.77008920865,1351.98130806273,1394.30886614115,1423.40471661591,1364.49938176086,1342.29371430399,1211.139941064,1106.51996715407,1073.53014847601,1193.0276197973,1309.11325517951,1233.300566449,1004.72100450033,872.640375166566,817.58549022853,877.062430632184,1022.72022550297,1143.16028060021,1154.34298252459,967.899633089799,818.957811245707,722.299224122177,646.54910988659,581.030839792059,478.832638005031,415.845456550994,393.741516269347,383.553625061406,349.825501815836,328.702176456616,290.857296835621,247.667373844532,180.953891872522,170.003314892259,168.619223258356,191.596535657586,213.287866242731,247.959987519447,307.650946090648,394.283338572578,496.160919380857,562.013000714932,679.902914258017,682.946038979174,502.366469497861,470.322291784247,531.880136056976,566.826498647842,640.526187464226,576.14942616603,553.002845796024,560.742225310584,582.686239160604,571.519586752421,528.513858464011,441.811683212061,461.531596294213,540.720173397615,618.909291036301,630.672615993409,578.410833889398,549.383786086836,469.893021469951,320.158972214209,358.447850242731,476.184271525871,521.400299539233,609.077083455857,737.686205507122,686.189236096644,612.279270486259,520.171716496846,493.655590746044,499.45516785793,528.289838333615,564.435545783907,499.697630636891,440.921034016811,377.505999782811,361.679914297225,419.555997545361,399.160244692506,359.967922668155,345.630017025259,297.053415463278,247.44789678044,250.247520644337,262.927421864001,289.937773193659,384.866786063751,423.03160977017,338.010414054553,350.854498340069,435.44268382374,430.420905683088,361.583595951928,384.934854547218,486.200673102687,511.339828437727,456.184665202822,464.191414175031,523.900985567481,510.761729762937,470.17292639793,442.64516081773,418.709380046633,397.451333964487,402.61373996736,391.902804139362,385.666711126104,360.775595944296,380.361298775624,419.082483752457,416.089393044831,415.148428056827,427.377333842812,367.178488218338,341.78725319263,365.667434124764,367.2585072162,334.803212111522,357.830727884789,377.523519458274,361.169288287511,339.065223370022,332.809764259814,327.658301095356,300.830032583537,298.914168873765,304.189284825746,299.987391686297,306.39813760253,315.019510415966,305.951467969366,305.361406170943,307.112022177715,309.838653561522,317.679720875007,323.433906109262,323.356089301242,325.353658612653,329.122672226018,331.036697719424,334.55162496748,337.299129873201,339.809131734854,341.146776213438,341.29495516494,349.241537924863,361.706383122239,384.404238279381,399.172437901036,410.137729862483,399.284249202619,382.60102777145,371.35581636193,372.810645637422,388.87988057547,380.553525616263,373.990475475415,379.311956341022,431.575152485575,486.928894554315,492.995257523643,462.38606860758,461.329314554297,455.737190800109,474.007622406573,492.306641805422,481.296652939446,489.162439295432,498.206609016186,505.335693030999,512.832931212899,508.122009622588,508.475592224526,480.53893921166,476.724437395359,509.96353112019,535.587504084625,541.51678650118,541.571346939843,583.831311037228,553.725848084678,510.710184323359,481.528098430921,489.616795172277,515.657993306198,553.345323411815,568.410417028445,543.218775596334,524.063049029138,530.928432503181,525.575321799072,516.105356332314,522.523244632825,529.497275980989,550.682428157673,537.181061929955,508.892665130018,515.901179293079,535.439368509802,546.817193391597,524.791246623973,522.110813732127,519.156290913741,520.699627127991,522.770132920617,546.921983173513,607.707714055121,619.759114101078,681.10694157033,697.293188362605,618.120418015727,578.105972963301,578.380872578389,602.305712721531,644.46276125505,697.209954732346,710.983456425411,732.613851473418,713.409920538572,743.738868579567,806.825811408074,789.614918979944,726.911349158302,724.114109380426,725.629966421267,785.378459233936,756.727046481369,707.963412813754,712.383954510598,708.214056533243,743.915221644397,737.735268829921,793.463760538759,760.118909574712,743.622305131708,721.191051451133,733.786528072954,768.457779857027
498.085945681181,517.764455448286,513.318882878498,446.172726279252,405.474127818325,386.25252020103,319.450760992451,318.505542158265,358.656916885876,435.055319145486,528.582456405956,642.255773764239,643.917711384004,692.615601672435,769.204857119946,796.358072954607,853.941172175729,841.113653419333,897.984529517077,1012.21603531182,1175.48305105823,1275.04112998618,1293.286818519,1290.75453982385,1245.42713258058,1283.25970824745,1307.11619700709,1235.12457755011,1248.28915128912,1141.48264876667,995.066883336051,986.617561875303,1112.07489688976,1203.74737624775,1222.49049546282,1071.21673325277,929.70489728427,784.550487002086,811.836570948821,947.432154592743,1081.32659784558,1104.98151034291,998.77735965524,828.577689198001,681.948565436061,586.06694024767,569.849077782816,504.580931906701,437.800463111853,373.618399152132,354.030735892954,336.21963176697,334.931151156467,309.03149766244,248.222126405916,173.094233919709,166.161852928256,165.725234863875,186.169304357561,210.063109985812,266.490474990488,324.084188595248,422.534151867572,528.947908471344,579.139184322431,689.98434471028,677.11268993129,492.329426498957,426.389878067293,471.167795726133,537.714236578245,614.715050748455,621.113987521432,540.294399562886,557.896481713617,571.833355967493,536.373297172706,536.691588584358,445.726305530027,442.719366108505,512.839556843229,616.943669593681,632.960960976431,508.223051183105,466.228549036267,406.938764406249,308.421520876108,360.074908927198,460.402726309727,515.161002833771,615.242591074104,702.713171779553,650.115574393103,569.189072416384,517.452238901045,441.607410004289,412.362087144955,476.906929082627,604.525548795186,593.002944121225,491.959016427019,417.971072608595,349.22998426127,349.256504661166,383.315742590406,340.351731819909,313.460820480003,292.732893611222,252.090389315518,250.999544930967,266.729995476396,292.5562031477,350.27378170716,407.536636814254,353.156078785072,399.375431370672,501.705471817001,446.339628889068,383.088014340486,423.212743218385,533.421734297568,568.543334692444,521.942394364524,519.708635715981,514.617788691722,462.629189378511,426.916982332112,402.511305782161,388.424143288188,377.97645115339,379.222727031514,376.435248083406,389.979032115367,375.945213492041,368.673954742389,383.059098372452,375.955255386625,372.244519767898,378.491909084547,347.198459115415,328.11604946951,351.922091316231,361.586239983713,332.443108749686,350.169039612672,376.609008567735,395.838572434898,361.906558325709,332.603524944299,312.886708912093,295.542128894836,301.730923888043,301.643115365425,298.189053548857,338.837327090883,347.580717736645,315.425032943202,309.476206053975,310.557250607869,311.702913608274,316.24077757427,322.33735709936,324.123427575035,325.517442402461,330.843518432726,338.770220942201,337.120911070152,337.637887964029,339.41002916306,339.828777409516,341.722932766391,351.506880616776,356.669042309171,364.77861335668,383.866817129376,400.377745098997,400.888208890669,374.839175806905,366.585767145653,366.257983491487,366.897428005488,369.314715250175,374.182010537723,382.337741511713,439.57561772564,493.595614806995,479.038633577314,437.789895621226,438.408626157687,451.755329726113,477.18338154006,477.077806522617,474.461707048757,487.385102309042,499.024147037459,498.654485234922,483.692083971242,480.233647202792,476.173617630327,459.313117863145,465.14652572156,496.631337076301,516.004270575126,519.389215660881,542.682720409886,577.732408932188,516.189599218796,479.28061622528,489.06724886424,532.96041309267,548.522895518354,569.844355625774,548.577117634787,524.03239468642,517.582698974656,519.044918583267,512.425896500014,509.506405410707,517.352736087975,520.214714418908,534.971095763354,521.780639991731,502.012433568955,502.534478938459,508.65299472272,513.859554423692,512.933222890499,513.459116647445,522.180239084148,526.057281201334,534.212861871529,538.904825848079,549.155527179283,586.263701581045,650.97172979499,663.675326172704,586.410161608909,579.658223182574,612.554372984322,663.365977821913,686.533289952038,733.439112897155,771.537204781916,812.45399037904,785.838828575449,832.683512009351,836.380373428375,771.741660243624,769.977902919323,769.899450021461,749.061444919031,796.685064294326,805.992895409563,726.336993243986,734.55287816921,720.378106132714,770.273681791235,729.816025387921,753.088265841626,790.51351493123,776.557273222617,749.528347676329,743.941754097925,761.62023389978
450.265364038425,458.36827253832,446.833105364371,397.84611396651,379.593842639052,386.266493122372,314.913136269666,323.999717119682,356.061907242295,413.975629515437,488.112031714658,546.050544781696,547.110329383137,608.629909763971,655.850854075058,694.627688200667,739.824147906818,758.959914295393,840.503255972748,981.93197137043,1102.98808269123,1165.7753674255,1175.43776363919,1170.23521430289,1139.19060450491,1170.5251619735,1182.56316811198,1120.32866849731,1164.09763864968,1106.37223261248,934.855009864807,932.653357191026,1085.17559202689,1096.07070494755,1143.18554325601,1063.54592039442,952.459146401116,769.975077003901,748.482719482651,903.479590976411,1002.89416707033,1003.9188785914,948.557581826863,820.64613276936,640.611607228685,541.505625421352,522.289995966307,476.326941419703,455.946233276363,385.132881532717,332.68353206454,325.931437586601,296.741750074684,309.613053768872,245.801133537612,169.271494098638,163.86623433191,161.335109827384,182.587739005867,212.922926772961,246.744572242434,290.409558415175,369.063081052642,456.008059592085,541.568218622469,666.33695610519,688.940535392832,544.183504088491,437.118374258465,399.057505314213,462.918942994436,544.671789792357,624.977919067934,569.961390337662,539.949878636112,588.263180739902,539.418763728519,546.686449429794,453.634211003745,450.561696368068,534.726116325643,617.486706890679,597.920627179739,456.885453317713,367.347154121941,306.981371446807,284.787639571761,330.864669895776,384.645084036676,472.672967196141,616.587792759738,658.418823131635,639.534570220935,574.94443978155,540.104123938762,467.184419795849,396.287458084325,551.688357807539,627.265803854,584.555943398498,529.404569734875,473.828875064452,380.719823014273,315.550227520418,332.789531899681,336.933474444733,284.553861139085,267.644410571807,244.850332875837,251.577772257471,267.186148616433,298.68777780467,345.428657836018,399.232777240273,357.82471928271,411.621046951826,515.010166007979,443.670456941303,394.491624240933,457.862429032041,551.080520465489,586.304962566676,577.675932633794,519.189449999872,464.285405629987,429.980479195089,420.212997889097,448.154183592564,434.933053278925,425.998211744922,398.660683376418,360.693833296355,366.566710149039,352.739190447043,337.788388341679,363.845735127528,360.854873381396,375.704195284271,381.586751378394,348.543318267772,323.851144384717,344.676900942334,361.957467782712,331.448012602195,354.60385715604,386.73399790265,401.695913450402,399.143001028193,347.114620254431,304.423401225332,297.729839350382,302.922370651734,297.88586688536,301.191812279846,347.773044294981,355.889377855529,328.804542747074,316.647652227895,318.45811901789,319.170976393216,316.494915847696,322.763487388803,325.4123246914,326.219238951398,347.053380324983,351.883862460076,339.865593334663,338.399049638909,339.714977993616,340.156602007714,341.98593593687,342.554255986003,349.190461715685,356.800855424659,372.347616096036,382.277349523608,387.523770579469,367.14460541049,362.867708614236,364.689941203254,366.188480779027,367.516260582893,374.708383075916,395.697103666928,441.12568847253,478.348571487127,451.273687165424,420.67615047046,422.841309999955,456.484345902874,449.35631210667,450.019903999037,458.553849592693,447.684141485357,473.241075160435,466.150579477543,446.290406311288,451.160114188862,450.511045682478,440.509906690169,450.821543706526,465.551767260044,478.339486958749,496.622440863188,552.801947198798,545.330102401189,486.600545296454,475.403117619034,511.648179551316,568.281269427215,568.875310764622,552.465198912365,530.565556420275,506.300201808048,523.082142672585,502.90107220625,497.181609849106,500.045664843619,507.81820630787,523.133668881788,516.95207920317,501.426826217763,493.619398575015,501.663244210108,499.656477545035,503.260596250869,510.419587585301,525.868696496413,531.620670952891,546.278587275437,578.697463607058,593.763788729913,577.343269367985,563.511699829731,597.146964309655,619.789316067881,573.739945523549,624.855695035328,694.482724072216,733.126876796727,734.729704351607,790.338883224106,860.083761949847,890.875824556386,845.293448258707,896.645246078625,860.385469525972,820.58032056212,810.840904943574,797.443029456345,790.344147480899,831.347159559952,824.656508874486,744.045674866992,769.432213886038,735.95685640352,773.680524169552,798.228546313489,749.759416467918,764.264983902933,787.352778454181,800.72139726551,769.385021687037,776.720446878028
394.33548732871,399.11887306733,394.470804772746,373.295340779688,371.251257971282,375.287761705119,317.700235703637,319.780675097241,348.81526596044,387.066064800974,437.009638906664,481.089137653568,505.435564068788,543.334491944727,587.957340942232,631.263791355685,670.669572162968,739.850492315486,874.454910498648,1006.98607056055,1029.03954337774,1058.95207258147,1069.98025765742,1096.55180069347,1060.61698550559,1078.46195444692,1072.7817244013,1017.72570645881,1081.78628462213,1035.41579304222,896.660504542941,938.525263654434,1088.27817276765,1016.49173311158,1055.53727139513,958.651760645821,906.579919438831,760.021976443724,708.500701168089,845.483405894919,914.655975325212,908.068480147779,869.84849896521,806.095339611694,640.260077081193,535.977830061203,477.210315528831,441.000323641864,440.192145195898,426.027331536032,336.203772291784,313.132117586063,303.176545382669,266.878760140385,228.947714811625,163.137971686617,160.869035473429,157.820592765844,176.72424295705,232.960714841188,301.099191214139,296.105764020375,357.947492055225,429.756567950213,515.360920555287,638.632910813432,672.042952911566,593.84263544127,521.013917474242,387.985711921363,386.228165288903,474.052743096088,559.593045565771,536.688985600949,536.058535780402,608.225347385,535.123897210688,512.192029195481,449.634452927921,430.489199045689,562.247354050435,621.20522076433,610.765236419413,507.742494638761,409.701714241072,282.27249582768,315.343051035941,366.712096694309,443.226754699986,532.26958406125,619.849996975141,585.526152547763,580.179701142766,524.445775867283,517.702146210807,419.504816786012,373.061214822428,489.078958666849,518.828920459,500.254014362707,469.172855683445,464.729280283545,413.934203303874,351.268464605297,297.98702391676,300.221229611093,273.388594633418,258.187771014784,238.831302294297,248.118251118633,273.217389131189,332.01562665649,371.734686466756,405.167411889255,384.251412006224,411.79683758657,510.73035057951,452.673614207232,438.685539780548,448.717460675485,532.943117655005,516.988732703954,543.737373821391,523.119646993853,449.191860891637,447.2337270488,457.783652952948,534.912768938424,508.636757197465,498.8970888072,443.034488088962,373.261219586242,366.87839894695,351.548993768534,331.99568015485,335.526498425039,349.737333744938,401.258122751683,401.416614135743,357.388393892497,317.708508249152,347.574513303585,361.370529660793,326.627705551271,353.528835219346,372.456804795319,339.337430902059,388.919835044452,346.03544963188,298.25875325736,297.486259275495,299.642667735098,295.945619074176,305.866631895155,323.870999814832,349.451530230792,346.482179235246,329.974740976395,322.9685406111,323.569524576612,317.397661790182,322.127112552859,327.390557363335,350.799765642202,367.826958707493,347.058011960734,337.238958047711,337.290160561194,338.625819124372,336.816346681662,340.090191757851,341.540030172399,343.01713861065,352.482380008152,360.176995074811,362.95818870256,363.656683097123,358.940570197702,360.958194927861,364.501426752967,370.532613336759,366.437224497004,385.832037117857,428.907714456761,440.933657262353,441.9880419303,417.130985470597,404.533497225203,414.348602310935,422.528660381565,427.034688231762,424.982529989964,418.15684832969,415.654219069905,421.512987636052,422.340960221684,424.478412355298,426.471962799855,430.70468782855,429.172561338272,435.562105198196,457.96407824268,486.459358255474,521.957266209132,539.638048094887,502.174500560403,467.100555862937,488.543912978696,540.666326453049,567.533778095277,536.117562678493,522.967304312471,510.25426849971,502.76026598344,508.14039864866,485.622562116706,486.461962101371,490.925264677716,499.236475270244,508.552838538988,494.13185346428,487.720764265601,500.571370770531,525.529113266314,526.472057355796,504.124581818892,515.549850266494,552.494714736586,555.905495256325,566.635049740001,630.408075978376,670.80847553952,640.746321517434,546.890293463195,557.076514394342,582.665576780853,594.615892062177,681.892310903117,763.277562316688,784.297679395651,774.348032978494,814.276707292983,913.617514294192,961.706686878932,940.626001749694,945.814926399785,903.764318094909,903.107528552191,891.812162201216,819.672104151801,815.8868926602,868.438545912736,855.593572387461,760.405042689665,789.664698903546,753.230492938598,769.665335895724,838.705222956668,797.585717600358,758.152912045852,812.395020843034,850.222238158608,830.329032124253,816.729987587464
359.960883312515,354.434063155574,342.660657435639,332.169970014599,324.476740882094,314.082643172542,300.003459900914,310.182488453254,342.29183384329,405.375679462808,448.677917494235,463.776507087575,480.80536024598,513.308986416228,558.295453896935,600.295530016691,650.533182088559,739.979649984171,857.721942356387,965.339158451207,971.538121868468,1002.78718240722,993.644291026309,1053.33445448695,998.585699653963,1016.79075053468,979.297281631989,929.712929265389,981.678726831999,948.003579687225,851.014609472699,936.319830442803,1071.56085786399,959.597957454663,980.350731734776,887.345690953326,829.374893822436,761.881113205135,661.556441335105,777.235677032304,840.145783353751,853.109675594595,801.543060857748,760.825406461326,667.042159771128,543.852333734664,443.520166266798,410.821259128968,402.752314386171,398.838261094143,314.140035293417,279.99159952527,274.651890168558,246.197519766273,210.02799734292,158.936603445085,159.13039049081,158.298414384342,181.390263728943,235.492637556492,336.183083172153,361.832980408735,373.952383355549,408.889633468212,494.400601358085,619.255277543806,613.67962997384,549.62535044661,497.005101846121,383.268658688117,382.092394066688,529.613007691052,549.739194346888,483.634883700273,568.625946181438,620.044738794161,564.964322890605,536.713199873835,466.996338665571,410.950101871865,463.035195252639,491.695719403238,478.115503213988,465.154199662068,418.43714878605,279.665655121481,278.563779945175,331.932443957397,438.184905657191,559.293610026404,535.611024527857,459.005859801627,526.294221203852,421.913446136671,407.83980936376,356.067929890231,352.808560951688,395.865327609974,404.21016115386,408.749919271668,390.455914594829,421.212184315215,389.291804947175,348.894641062852,313.779714056575,277.016398796459,261.375155687075,246.907928397429,236.090438311211,254.234624056823,293.838472743706,337.928358565086,412.740746654034,434.831530717145,436.940646231609,407.700914266128,466.938110244309,534.361816293327,538.448717131314,539.263276665175,495.534243982051,459.420654746736,499.610324538771,570.569484846249,502.189087056927,490.071976716008,468.288608194302,576.767146915843,576.873622987753,526.912550047872,459.499642009517,425.859789905741,426.430354359775,400.288019346879,373.237760526047,327.221846107309,350.346670916588,398.030459525052,398.854621243985,347.98944038308,309.6896721939,333.351035554705,349.926015650592,314.90972040775,350.618389873507,352.69466305715,310.688839282071,317.231890144602,306.74602588556,293.185458021317,296.088774217096,294.280363201839,296.577217210052,338.143510033472,338.170301756092,332.056452990383,348.741714585342,338.491253805363,329.621926787867,329.437760907343,324.956775226262,320.100808747072,324.287882939025,338.023394831812,345.540200048264,336.166735771998,330.294499637212,331.144624798392,334.590876830254,337.528426909541,339.595419990651,342.695313820397,343.446136028238,346.118887528649,351.415355079712,353.611629819143,351.297474253542,356.940488815511,362.67944612619,377.338099373432,388.978418309583,398.011647237966,413.651704047933,428.063176774703,434.865489598137,418.654809346695,395.908752437491,394.268675894048,400.550198288633,396.462935592964,398.591207818741,394.77958356549,396.13485138126,401.005533162784,403.382709909469,406.333009595626,410.297852397812,416.543662025161,417.964932745283,425.299255525792,453.743989319845,477.670898362021,497.01541143121,532.393017363435,504.231458687429,467.807761200608,465.305148794848,511.00744311065,553.373215737197,543.049795578279,512.134984613475,502.114976520385,492.911927461493,496.515667766776,484.571215854047,475.672454316774,480.05752768178,486.04147934695,489.994724944781,485.926425600919,486.343847418348,493.746945175407,515.426259494466,538.449684588668,543.793811828485,536.920637872564,546.058691766821,557.024416682018,567.005673731349,578.843550505545,676.102749844684,667.80192103258,654.086098835047,599.430673729399,622.453606482314,567.697967407166,588.58960057979,719.261970633332,808.17782989655,832.610680532831,828.133016955222,837.092895794452,970.733445598588,1040.81738840049,1050.6091850926,1024.86224169307,962.17215443576,964.06182847461,929.978575410635,858.392426734434,855.020165130527,900.163252503897,873.883606641461,780.299644268689,844.193626780066,786.466950799075,772.093300287692,832.183073575483,801.904900865657,771.987427953274,821.252533067304,884.709892463422,906.609921903545,864.284256999763
432.284045531789,404.741430343887,380.857223485035,364.534235059394,369.352814878661,375.709009350992,351.826444808758,293.596053546653,341.626145314685,415.085580192427,436.691623796981,441.557165369955,473.752639986136,532.863490607282,568.23924713185,612.754364008609,664.642908122459,716.815507799017,814.513754948837,891.802735572283,911.973119875646,937.347979599358,929.263489977784,1008.81547823788,938.568528463239,951.282511596565,910.741785209278,837.675234968406,861.090024533542,856.547606999831,804.254074802485,886.563807007544,997.427496261817,920.144653652772,909.81737424916,856.932612173056,730.870226305012,692.967813243721,614.81553900682,688.193193454872,750.144604422369,804.710292159587,732.295580694918,680.246505815439,639.437658822031,538.721719744243,449.551101133197,377.678135345791,378.446612159086,383.456091473752,329.336969368767,285.932711307414,247.202764276264,215.677661247205,188.821856362916,159.272224023482,157.394913742032,158.450179407693,185.409877514999,229.077173458571,322.054312722349,412.24934101211,394.629187892858,427.734114259623,507.132200400286,584.88660519006,577.250200399967,563.321958531288,481.698123092933,353.048288205532,402.94150522407,552.507261838247,562.016396992441,467.652292126966,558.877916076972,640.1238355694,627.960065253263,597.628762809428,510.066495953414,388.62359568651,344.235604072736,341.501476262269,329.548342860483,331.912139186738,359.734752840922,290.347629134141,258.611436051998,399.603808521659,509.302587467045,530.067313701035,443.604818492657,408.710378097309,471.306178874837,415.219653762169,369.0067042739,357.813022654702,317.120703623032,334.564165626363,347.904255853935,332.539274192544,330.486195840413,332.918397036656,309.345677146958,285.763073608264,268.975267947831,261.868401786173,250.145849482442,238.02944733139,259.219050004906,311.044099789931,350.171487661967,413.783717173155,462.295757424866,499.516721546917,495.644731773413,463.841207807593,447.880773865578,501.809046145001,507.635692909301,502.463063206488,427.685394530207,407.392900625482,452.371871660063,572.928483925617,571.810505251565,546.6342502278,542.73029822793,623.81475086545,610.020783646579,570.02908216228,539.174452327546,506.356504695609,484.313562725104,467.565468487689,435.391503167448,361.026556949309,332.620357689514,382.294534326093,390.596143997117,358.276694696974,310.043031145732,329.012103105382,340.545350742671,310.846784978202,326.670142024826,307.406716700166,291.123079657533,291.114576127654,292.196993785989,291.161191696005,293.764043955706,291.594622726126,298.0783525947,330.529765201248,361.82931009888,342.056138111413,358.084683806169,349.454125220525,338.907585574024,338.618890824903,334.636331702038,333.735136302461,324.811187710626,324.056392626205,326.417721416678,327.778303047559,328.89777198677,329.711154188728,332.582095098678,335.423257564326,336.30603939283,341.107158604935,341.481119053078,343.27099368903,346.152498227376,349.941996496943,350.38163633437,354.17890465911,358.747098759973,368.237272482708,392.388553766692,421.370033291625,416.869850864318,417.179919087142,428.369149047604,394.828526058452,381.295145748364,384.239940767215,386.849347924208,387.614882403272,390.38672324119,394.13138099377,397.333633978153,400.141342890738,401.871994310719,403.491874702,405.683962193641,409.050113779398,413.431243360076,428.337855470261,457.280495829708,481.737244857433,512.111810539658,502.87623251648,470.954202898774,457.086574525497,476.784268906469,532.525886935986,543.899039328989,525.844204346123,492.721769747974,477.157286872961,481.830368606683,477.419006364321,472.385890191324,474.151961222642,477.178602172747,480.001994358997,483.567806353142,501.073194053912,520.281798539182,523.782483884382,531.509621384484,543.389485202789,568.567261597898,584.239418439518,612.366067088432,571.895418378691,575.550719682283,568.778635429162,666.607197211433,691.955955058468,687.956251892541,717.795398084497,713.273915225099,615.012201889412,598.223899526744,681.531523017262,789.957005021824,856.091283437822,858.043700761779,866.355761858336,955.939172991964,1049.95552993978,1132.8245313928,1087.06886720138,981.133028805043,1014.4414017222,990.352212075269,914.1427554255,890.833956216098,950.801202988102,889.382539599909,803.766587047846,874.55335504117,800.343386912202,763.966691275968,806.065684075615,831.178013768757,797.892221142695,828.671882235969,866.596516497486,889.518754676334,896.889739742122
544.958928601501,508.279105836115,496.7932032981,486.218166764327,488.200797531854,486.152757373462,455.37433299502,334.900895373267,299.445422701149,359.592064965401,395.693132188658,439.798176306854,520.42539987332,546.650583675395,560.239536420524,620.142257406545,680.512057679366,740.45622584498,799.967763994834,833.324103864652,845.251489391064,863.051454951047,881.113480021932,946.060742872848,892.584664536199,884.46474449766,846.603148016709,774.943206898825,755.218488109893,762.749766231665,745.302112837744,816.75893910446,897.24495979742,863.889483942211,843.921327173507,867.033941483419,757.566372016228,645.11111101286,571.171539198261,586.144014343649,676.116897835023,722.000754634422,655.453455317054,605.245328482239,587.94072587399,544.322926005395,493.930849509102,393.278222488761,338.508263073439,362.000200472667,331.523466275366,271.125301234712,253.276574627144,217.209481968141,174.700436775901,159.805176956598,155.627065683479,153.395312040126,193.383442118429,251.320787018271,333.507818024768,435.653584060941,434.734954180398,428.567652294791,486.520074140343,547.922182723379,594.731862311211,586.96947562779,465.453041062552,342.313948314554,373.651827141004,497.847188808179,461.769584752234,471.287969221246,552.884299734083,637.654113363563,669.796492849886,636.141195215018,535.650979684952,424.814679186183,404.427719021555,368.695897604852,320.599294717338,291.822914926914,275.22091418416,259.795483345025,310.048468550228,429.171969460927,502.997308420048,492.307168044977,384.28827292637,404.00947136206,402.631598316027,402.576645830166,326.916401187411,324.910752523934,292.725172423775,327.313385883174,365.576736663263,291.13619868835,286.217732671266,270.986091338258,249.444593105964,230.505974478776,222.328503756119,229.927719354274,233.567841096515,231.245605660789,316.374889170014,402.871414264389,425.639813966231,501.092909214036,515.772771663916,494.839609489945,495.675733597254,521.812726564857,522.366039996962,520.413823904952,434.436353967895,408.826761269718,375.331287063604,376.080060680818,462.362795832873,603.314560993133,650.482979060364,641.482680015303,612.309312135146,592.439210440485,585.221343867198,594.040357374156,570.068049971357,553.105536495287,516.785742102017,515.839312432026,474.217312978264,374.24617498246,317.551377821624,353.292493248105,380.985334449118,351.747662240008,306.350373096273,322.464798275784,312.703802345663,297.931925718612,296.037614919477,287.939691159783,289.524506064008,291.428057073546,291.769257509275,290.488732389859,291.434554996912,296.916819957919,321.84510910369,331.058198508039,358.9666789248,351.726410101808,376.536155849784,364.463397477547,345.036165607173,343.465044024194,340.52778208092,344.744937298271,333.916136675081,330.320654656796,332.217725019405,333.597406029971,335.872235147056,334.517759721374,334.109862496498,335.102136442426,336.027415110978,338.676690496713,340.463007417896,341.033320749133,343.278056089439,346.910338893119,350.891860102903,352.461125597463,353.355839957356,357.492755374226,368.494213223367,389.832801279711,395.484635067353,401.995624237251,394.539578244167,379.120894804592,379.294869870969,382.190960126017,384.249607242302,389.262318724413,392.255647306249,396.03733273646,398.374434917613,401.63793575678,402.671923714699,404.828512552513,405.4187094594,408.378158471653,411.571186194247,426.354900396593,452.251647968472,482.220778773155,518.77863178204,479.914221425314,452.360347975365,466.357998106686,516.128605253884,535.770441646892,521.439268030004,496.502586881995,473.322210356015,468.745754993909,474.400380802462,471.299484701645,471.882331397426,478.811658224878,485.945181116593,482.331591659421,485.690602321464,508.600344501409,513.815483395612,525.324010089232,560.112839100358,576.384899625143,596.438004759967,615.112208816532,645.200321226477,604.342058544501,591.086100278048,592.256429640714,634.835142266824,742.460176787166,748.758098318251,748.154707605505,781.289871046821,730.310375244396,693.866978799066,648.312959454173,739.524488372649,842.266790920443,922.577458861595,966.330470526357,996.561873190759,1061.78963536257,1140.17770234209,1128.81385316,1039.71315058728,1050.30392738234,1040.88980028078,952.559019944502,937.963683057513,969.318229957296,886.627584343985,823.182610546794,891.459117630023,819.15362217942,772.108488299018,809.057775971963,868.939372856588,837.805958346407,805.298664515001,838.172526664805,877.128507852236,906.0189037509
615.585677815566,592.831283873167,576.327979757212,557.164484938467,549.017751703463,507.309894960411,437.293314770018,347.957724787254,275.623579793278,335.889569370373,411.276657552722,467.306722942482,502.714822901024,501.445078654622,535.781860290912,572.508639853846,626.094363002289,715.112694256666,756.64686729374,795.095806510796,794.602632030573,810.72214974073,842.423422363759,872.397076918817,849.069623730848,825.042816564687,786.073696868175,740.544870357195,711.671102089995,699.350267616045,711.188146751747,800.425559610639,778.872439302992,761.356346582455,772.072077879798,824.900395106176,776.189613050397,639.116936266878,559.387194189538,530.076222946963,614.774807649553,629.596715231155,591.566533681311,562.335581741453,522.848484484245,501.021684160503,487.940251843023,421.211338333712,342.630856127968,310.164051984709,303.669793984576,256.229056661734,227.628738978934,212.705063428165,173.958327126466,156.740824445516,154.745241196888,149.104471750441,200.560186838888,302.272741353262,372.512629525356,424.157473519242,442.204130958329,457.283507380319,472.010960296123,516.965521155597,570.555858494574,545.233113085235,450.621936253872,351.732050292482,341.464253454532,467.370781157719,428.68986067784,516.398694774898,533.353696648309,551.650646399719,587.460940712652,623.087483574361,565.163796458245,477.176572970669,472.926230259835,409.293010345098,382.521343142375,377.655344064335,262.719585485529,240.943074786245,342.205681102,426.854690768076,397.759197818553,379.51731691018,350.746946830001,385.857256539932,342.428364759207,371.174908443203,341.127624856448,295.039651728604,284.972599571929,336.847195309589,367.252399214888,292.401494755905,248.52224189747,229.048090119919,219.787416679987,223.222306544463,226.214514497248,229.780263230473,251.014797429409,280.862846899338,368.616493643547,452.307526165987,435.081081897599,472.747185067278,470.115918930832,428.651606234402,424.881965197908,477.143005226713,499.452840931852,475.535855665591,411.832624692329,349.69352222997,346.455360484584,375.405694430836,489.696233548926,593.418302595749,629.382414089737,623.638678810433,581.008876890037,527.766538336945,533.509954207421,552.3563749053,526.708530121583,520.757313795842,472.209825952876,496.089044508887,456.860700488314,400.768576284359,320.420049865292,342.14777690188,360.811430864359,327.951989776958,298.328766103695,302.523193671484,284.011985273761,280.793905791751,282.683313482714,286.305337986177,288.831557739185,289.647266005749,290.427238636259,287.959904744001,289.076859277631,328.070830422418,376.80931817279,352.609889867054,355.056463661708,358.755821068872,382.397537622458,364.410754621932,352.728527571662,354.592411905078,348.372409041775,350.935234868045,342.389563725617,332.680678950393,340.171696312684,335.340130256583,336.711909351417,336.986290686398,336.722171948574,339.936048747961,342.873262053606,341.772473930976,341.431750801248,344.351451693626,346.464203815514,349.826365558746,355.613225873714,360.01818558958,355.522275215884,357.982277333599,361.33539411786,372.894028073218,386.622272163148,393.600159572604,375.505721482402,375.614767489473,380.377998557096,382.83646029487,383.857783929842,388.947257041649,392.312730656613,395.501107904092,399.298750794973,402.275112863635,403.496815039351,406.527220795502,407.840352741203,409.165377422374,410.187137610786,421.468040186598,453.365703807657,489.576881286989,518.778724678857,470.662505766339,451.137571774874,482.3374552928,498.922787176745,499.885227145034,495.641699033989,475.150838783965,469.498034892313,464.051992290923,467.229018917175,468.410309644525,475.999834350606,485.158597986497,492.371547803111,490.783398524368,490.993658264747,494.379202585883,508.734250173961,539.423033664996,567.387369018286,606.192940685182,611.709469734398,647.694346390662,670.044572102243,626.816714607689,619.266331912026,646.261359778352,639.513725941203,749.055134989324,792.765589031799,770.826008771783,820.016885122028,851.602021014662,792.313308905572,652.075217215748,729.614493101177,845.828260577699,941.174764522527,959.457144942903,987.800300229334,1052.69679202539,1095.34851150545,1103.97949916433,1091.10687047478,1067.36617016325,1074.81180448206,998.107076281391,1004.60192989594,953.964310453969,882.026895349479,853.884970471335,898.214208237607,815.307312973639,794.197182146475,843.614534077521,880.869909476174,887.912183343249,871.537333089019,835.86421685709,904.582462089189,909.78299423605
634.410235001969,587.596878171917,589.891223415711,570.758934150177,523.502254244732,444.875723837559,366.984360791045,315.839525508697,268.72026793596,323.575303102143,416.284702491498,431.872693518335,435.637694158241,467.410818043169,514.127605996562,598.62513261068,610.126574999582,627.723066589915,675.039507747994,735.045109219637,737.553763902242,734.20849806996,806.536985236108,844.352063647731,805.850140685354,778.455613869406,737.520722772178,702.847111649806,683.56548806405,672.383263019355,692.790736534981,734.544859229885,681.121196867848,669.358993172032,693.41701750064,716.532158605108,716.540774400088,628.864248703475,558.373603108786,500.033291498088,549.766381033113,565.81401323953,538.237433432216,538.949639430147,480.558788852709,448.068367534923,430.749166745119,373.695823341708,333.794756746103,292.753025805761,270.262943941714,239.246902075204,208.708987707553,191.97648702106,169.781253433,156.378309522987,153.096181687743,148.184165122493,175.427825951274,304.473319885421,362.014100733687,402.702134514051,438.702005667623,435.295726332203,457.450882671616,500.32220877636,544.797378542363,530.327216503256,432.739063392427,376.595869811836,342.819098168494,452.696516369528,400.653893902955,451.100329421959,472.461973962303,501.114188326693,527.337005790339,582.537996222464,593.34833244828,514.427979204127,505.970965846072,440.641653388875,470.857919551627,450.529541244003,296.394190326888,231.958084690459,298.28411100851,368.193780055146,299.820600104029,304.99488498191,345.293169537263,337.797132706482,303.311829818242,361.795305150421,358.772773569205,288.174859778168,274.377165182301,311.638401871789,330.304515756724,256.390932607033,217.036467651052,213.80649450606,222.051117325333,227.610620400417,230.826085849447,241.519838403843,270.601040898759,314.397371415814,382.976099934429,397.860247502228,369.786754129395,394.156806066617,393.525051706395,362.650633158152,365.63708718472,388.490627626023,418.404740738238,407.26426085369,382.524699714074,316.734907063153,329.373520639697,424.374407229551,499.087833632366,527.674144717248,561.243312245732,548.873894644068,527.597516629036,505.58373569641,520.672573906293,512.93673388166,483.94352262682,498.102955862785,430.391636047894,455.663870964658,420.186468938798,409.692283156169,318.892331048642,325.946855460276,334.148359636078,307.609540259672,290.97105868856,282.419408119959,277.160287246557,278.868183908294,279.647131895242,282.381599963786,284.060719661621,287.620117767099,287.678600924587,287.24840166103,310.500404998695,334.836631877419,388.944137234508,389.311940615892,368.542612226004,372.97946523697,377.481272882047,368.184813256265,359.332775067779,369.7096281356,358.970569054998,357.364056957168,354.497580114092,337.559679224094,342.420576706918,342.922911551682,341.941521303058,342.137635276552,341.517757236181,340.744287999073,345.31232307896,344.569700905134,342.666447281997,344.16559680465,348.170971115078,350.582583432049,356.171743243611,381.842355366382,370.517772745236,364.405018676773,359.30026186216,366.421757155237,385.551471903217,383.466943763659,371.674961573834,376.437152177034,380.95714282787,382.999411650174,384.91998738621,387.885192897888,392.160749575029,400.284895820815,406.467865322176,408.887538321202,405.309189057408,406.252356433171,409.319776601144,411.734438383604,412.218530179455,416.913517133021,451.955771926126,495.777371297807,501.318829655456,454.615956287519,453.737990243276,472.666090690945,467.869267087127,480.669833587897,476.646245893527,461.739756770778,462.515961063204,461.791601451908,466.805763955878,468.606363483184,482.912636461819,487.300672606049,490.469255248385,494.10049500774,492.81373402703,497.140698358781,529.855819702488,561.502044940699,588.772896510872,602.69633595707,617.071563795702,660.645696790842,702.354644187845,645.271618274972,652.080924266617,696.546572194897,694.076073354254,714.442251643859,796.736372077023,807.214130518842,838.874574714632,886.954610602442,846.156153065521,684.831726469272,699.533695020067,840.443590016628,926.712986638955,896.519654754157,930.094546249739,1009.38889922277,1037.52231210517,1000.93781119021,1024.11037455395,1069.70886105974,1103.37964363788,1089.55800872473,1051.18211330528,965.417479176667,886.622402000478,900.795122475007,873.343860408235,821.244151346777,812.806783236923,869.804584902155,925.866469778794,953.418448882884,921.639456075837,850.218629153588,888.430755133287,920.329786693333
622.022668268532,583.731478870516,553.24058556115,504.71433876142,450.065783661585,390.996754534439,341.291428238558,305.558028374542,262.147050415047,312.060618918471,368.771619050632,366.070174653706,396.291264558787,447.052120928878,536.225322468032,587.295102701118,506.669734946529,510.431387664703,595.734517987449,624.176711662,636.436056027577,671.886529777475,795.785202983229,822.402813840799,766.350920044779,748.097931269771,747.057301656292,681.767537871577,653.679191428283,643.829487162706,658.704359434569,668.505591465637,611.445311685835,610.097187268277,624.449586332655,609.339167334517,663.3555967686,624.769558407473,543.338539360542,467.306452891314,484.419480085839,505.853256813983,487.778026521105,491.370554546219,466.876949759314,405.992000278769,366.541244610502,328.200226759352,295.580047240502,277.247716837996,249.737318515234,224.744177482141,202.911208111319,187.087173164951,170.341241669166,154.649160296463,150.965819189115,144.961048153615,177.62074290443,287.973801780014,347.154486585665,391.888015074082,407.514289696073,382.498922080822,427.597760391552,462.005393088617,516.797594381295,495.820067262929,430.349757917836,398.820366323374,348.238408710306,375.388209843364,349.503036866556,435.195851128038,502.623803828332,546.229905065403,561.493138427525,564.44798836668,597.78812848714,559.48958710682,531.410228307041,499.187415542192,536.829349948114,500.356764738194,386.125409395543,266.719525788011,259.288451812586,282.476732204591,296.925291858933,345.341417826464,401.727250401471,346.891687075123,287.173365526098,337.141660769356,312.021112824279,265.361347617773,265.319119784563,254.970679668564,262.29156027868,214.857168222033,231.627797445734,245.419237460948,269.458284109758,287.236545951446,260.371884251575,271.112205241444,282.340964583887,299.973201669768,359.226766221535,346.555529494167,323.019365730269,339.092229108065,349.968939954037,322.75500336382,325.568482949659,342.916551222594,370.622298924745,355.221817189588,345.998457938793,303.63673042124,373.597835340535,456.331481771659,464.040660762655,476.756235983773,514.919148586774,526.83562671363,507.180021681163,484.783703096748,475.301289161108,461.114494526441,456.807206656529,448.587242199862,403.855044593454,395.622575605898,382.99055738233,370.468010894173,306.80723110958,322.73730505414,309.395652405966,291.084394178522,283.79977680712,275.375030427948,276.668312929461,276.63555511103,278.478500407665,284.167772198333,289.677106604716,290.934913948306,295.422123875478,300.343408379623,332.827269768052,348.351199660694,384.351993002743,416.575565445006,409.25294386543,381.798527488069,391.476140137008,383.254400960442,360.984851485664,376.445415527365,366.337865448412,364.527799894729,366.291704801401,346.662212882866,346.477373895648,352.00068632462,344.885181969374,341.186072109164,345.196096210596,345.805541803887,346.534527940026,347.721528200338,348.336622953385,346.465083213849,347.716407215797,349.970258522333,356.179311239071,378.237372035757,388.658299080107,369.451857344868,361.658395858687,363.566582821475,372.058708243847,373.181308447049,372.806046350212,377.82477997549,380.354997022365,384.259566941198,388.152845115905,391.754661214959,397.505734190649,406.940807534464,423.537011502396,431.631868082874,414.568044235322,407.589609987942,412.162991472384,414.723681446595,414.651424914948,415.005012219778,445.453391630033,484.449286228921,474.04124425302,444.281209171623,450.692848712812,449.856789643606,453.998541318,462.034450180943,455.366242510942,453.594594909666,456.439090009224,463.817669178173,470.840135118929,478.323999796815,495.461593887884,489.638116393031,493.566623711321,496.882257563228,498.886971328604,503.145199006278,534.506012919832,566.762409287402,582.163596657461,570.906637001296,604.557855935718,673.533049799601,707.834663264561,675.023804658313,698.801639986993,744.436075958651,779.924525724506,716.407195434316,807.522772815887,864.18808110934,900.101209708921,915.617998298181,869.275767408955,725.209098203286,674.011507325774,788.349831640416,854.105109751202,850.725253947846,920.750206106782,944.525419963667,942.297989502588,950.205234614063,1036.96213614622,1098.58309657854,1149.04875874795,1175.8383769113,1066.61929599291,948.213736406692,894.120337781946,918.578730950789,900.944874299848,870.007113555763,831.296057251538,864.435859955949,919.636089561597,945.068963569703,892.01514496636,869.325990448276,912.448290542135,929.171027679278
566.215243060912,545.332565363903,471.800273985496,435.207508301401,404.843786437713,339.269181913152,311.347452030691,286.48804610206,259.195435884133,295.21544368357,322.068575398811,350.818612692558,410.688040711781,469.908968865738,576.955872620552,585.07002457855,451.461717870299,459.129982255652,504.808480608309,521.734949311344,568.118941621259,668.4445336404,794.382974651887,792.810092928461,725.126814821819,715.041872473797,742.975963139772,668.935528735652,626.023922520444,617.689029348306,628.253501337714,625.353831328163,551.026484053483,562.762431350637,589.973710535896,545.093475318978,610.779216086444,620.179262407514,528.481216262763,454.587322400724,421.167841992507,441.117360600703,433.711102306265,425.706832762693,411.469693832913,367.839936610152,336.567219592799,293.636478051862,263.625147143587,257.835543527076,243.763664474563,222.788360047132,202.529520246219,182.762533779886,164.454983510015,150.122010058665,146.486268452345,142.919420760092,169.9986914174,256.066032514498,329.123534371433,371.14877471688,361.883132267478,356.418735130197,336.424973524091,394.483447684671,430.186788951656,432.472886920671,443.666397274253,407.781185580879,306.528792370084,311.557297749878,395.832766208462,484.141193803903,519.378324714362,573.497712767449,601.081905345074,618.081070739537,620.736236906408,615.536574423187,560.778674594303,542.918357897669,584.637133264932,537.844993722084,418.134207758517,281.545391496586,217.265435459842,244.605832147479,280.36605640326,347.940792374583,412.388434709923,337.944326910223,272.078082058612,287.049669281614,276.780654231611,246.880936905611,243.4682129163,232.347910064773,215.519219100063,209.565244907832,253.381158352723,302.267408799563,332.781915246021,338.848943101607,323.670493324334,325.798817878625,304.221542856813,338.01949459845,362.153348053298,318.820441703204,296.382383999343,315.918047912333,332.537299712214,298.642588058528,315.492468026827,321.559749155058,332.707631238012,339.1532837056,307.355020502107,304.976991890323,351.747348512037,393.018718609836,408.031434429287,428.158830679367,441.931633741566,483.269605053272,491.262374336161,424.980882383583,429.804128857179,439.750964746997,403.123176308899,375.617282042348,404.632201643701,359.205150195626,367.018878142548,361.814179865074,302.255898983378,309.151191602182,290.970517615623,281.234427395673,277.662987038189,273.769065848865,274.693734354538,298.978264777827,311.755274596772,321.993906461977,331.297728530517,321.692543689668,336.813180216514,328.924696351666,319.541781385604,343.786539809866,374.298681744275,394.836527550592,415.126751668655,388.21144133685,396.083815602888,396.329446221946,369.743281445019,382.374537454553,375.958187308669,372.590874688865,375.243041051642,358.025309481195,350.167256917735,359.521926560815,348.198312375992,348.652501417675,347.490431957205,348.280536139673,347.84800302627,348.915829154912,347.971508267435,350.28762627395,349.654605375221,347.296116659134,356.809695485896,381.440843505072,399.80945491245,383.682323464476,363.402985368032,364.703873159011,366.07484286134,368.065563146527,373.276158011407,375.902341827901,390.943050834235,405.873540578021,400.640553838864,397.009382685254,415.930581400723,415.680550024917,432.484368094984,425.917957299095,415.171167176383,410.388157677347,415.029547845241,416.657167525924,417.337595430276,418.256587024459,438.133497783392,445.843876811589,443.366477117277,440.331883142798,442.47452543553,442.971696945298,448.89369142967,452.003151024551,450.996892574447,453.596153428123,456.560881874319,467.108626270933,474.995398402528,486.686599117504,505.311358099135,500.038284583031,498.219480676107,500.635261373649,504.594916751034,514.873824778022,522.725058187303,536.502638848257,546.806540509852,565.184493271412,613.746761122523,647.553304682828,667.86017469077,693.879154487046,737.5212239896,812.83115323402,849.578602788447,739.81716018761,798.292090707404,885.982205160747,913.983198762861,935.870887566534,887.415687421721,762.169379868377,688.070906621812,724.658678614305,789.651068405883,854.038610799534,893.500453452694,883.22422140149,897.679916362359,996.711634166144,1065.03041500553,1109.43111921514,1146.08073695999,1162.40997437118,1089.58488901899,994.113330645929,931.953747602133,928.368592197985,919.622423053819,858.661782923281,841.946901786702,879.479299941932,926.113238907648,953.123201129496,904.249781614503,888.241922967969,936.661094169456,957.035499484885
472.625322692183,443.273797923145,397.367453775379,394.119990308838,425.917378378763,381.486828977509,314.510770674124,276.870949381274,255.227069005987,275.206388621524,323.522545271449,394.717903978087,464.128579019316,528.895891982947,602.666176689803,560.787354822676,429.249888096312,417.085420462769,439.9949081581,485.906342218922,557.687465990595,656.523317814196,750.240223152015,746.046451249236,681.138761157075,679.114841577227,727.458406932393,690.35124219927,607.60412696574,592.309728752964,599.209116056178,568.54326155776,505.259098471891,508.786481632168,543.344356707543,514.088009954152,551.393680797441,581.769670827984,514.646492670016,463.169745389542,408.031727069802,374.115994181333,390.798666577621,385.51728139012,346.824036407295,327.76532098793,324.678940812773,293.1691477754,251.303628650679,234.312339638768,226.743061306333,212.427129492772,193.230880021158,169.800373362358,150.040968149975,146.023666850636,141.557814112214,143.143675554158,151.680681127193,204.716994436282,269.859545062552,315.575677571375,331.868714126733,336.249376362904,290.254186272586,308.190123279646,325.317493897788,347.997355048928,365.797829976421,311.879024414108,303.071703191688,374.910000420198,455.051109558611,496.551256729643,499.533418376369,503.632093819626,544.901688679525,626.410786439136,602.405193871879,604.651320670203,582.820809803465,580.562919971506,579.407487663916,506.694376441837,416.932207140032,310.04438612881,211.168925089465,238.173991679067,285.705903695999,364.868757225453,347.992655582728,291.45390469842,263.296886647467,262.002291553487,242.203493642247,234.968478836428,229.394033060677,223.088666685473,211.830519459739,207.520644506819,216.709557926015,256.862401219702,285.11144239997,277.212996000966,282.963241964796,311.097463182941,323.606060109408,336.07011111498,372.107826101482,326.477599983875,288.14625680165,307.267146954892,303.643853733037,282.705235954053,298.944994581153,302.977027110194,304.092444151679,330.816450599489,296.410506679878,303.316146880963,310.629370531845,332.457011701386,367.640181667678,379.859962569875,368.219839614947,418.646300464585,439.890188924423,375.491802235317,383.03796566396,417.911383706592,365.637023873287,331.19021798967,361.16055597143,355.095420485711,358.961153095402,348.297583103328,297.903239665636,307.538390125477,278.593975004865,274.298975650999,272.839567036706,272.720145027627,276.08101771608,322.186949925718,357.485018724745,350.84390675513,352.825010509439,331.049445772519,341.658456311498,349.959805871573,339.034178545926,339.439700050132,357.783676985036,392.521810317369,424.375527388408,402.920516635142,413.752814873508,388.834411950277,376.70695644663,392.432692597009,388.98801349402,381.417293950912,379.227114492976,363.256570202813,355.934371994784,362.931478034973,352.389326783058,356.677756880802,350.182046682869,348.106748346633,348.272937450339,351.629386973139,347.78110348641,352.726694124459,352.888514442941,348.633731376635,353.704039896948,371.247497280532,408.850842516599,413.543684392263,373.434833810107,365.65363658011,367.69017706918,370.424836529861,374.135730067488,379.953383770861,400.12328282536,427.706518669778,409.073600386978,400.04189469662,409.93433779396,429.010121953321,435.805059607395,427.36027281971,419.58431663001,416.704982017758,414.711387855167,416.656826776666,418.788665318426,422.746651640447,427.974137637243,429.831717124709,436.452493722844,438.965751021467,440.25039288316,444.306738547934,446.176559109866,446.748042522211,451.018759163791,455.780043507654,458.170358602161,482.486615242366,481.471911035106,481.446971726002,500.068158747087,512.811633841217,505.021148181345,505.317869581761,508.793210029287,515.28449409426,520.505385893422,523.393935840977,536.323422354546,560.665131312879,576.830799882057,613.594763452788,685.753869990402,733.122331398564,762.043120284145,835.803462540009,864.274713093715,774.739385003732,770.975792379726,848.041950456056,869.340063556314,910.756123413667,920.415366007378,843.570700591796,800.834114444227,732.492554531357,762.068105928312,836.856246775098,827.069140780934,845.576165313153,927.456195187761,997.370546536598,1022.55900250967,1089.5170060002,1096.46587173524,1116.12521357574,1050.00303780195,978.552611797267,976.910800067462,963.862232562536,907.04029165307,869.984829514244,870.721770541523,917.959285012735,975.51256395192,1011.94504030027,929.661138718857,920.852274604259,963.865931868475,954.044975468059
407.253522641596,386.882865248436,362.195455088849,361.678478573569,418.034313337773,391.719993165951,333.484194454253,277.42349368062,251.63199427734,283.496418807043,365.366029593617,411.140441165829,474.051605362995,541.417558179343,564.947504421826,510.443724519955,413.428845936309,404.935578355484,471.245106169358,519.806566044727,580.686211979254,647.744144829736,727.367567993115,705.465619831757,636.51075977903,643.158038590973,692.393958147073,701.854211022263,600.770344804776,567.590546115827,569.25923395337,524.175706526611,472.347746396498,454.336959629533,484.886525860814,492.308199590903,506.840605985953,552.323178139757,507.627495117762,464.329670336568,456.807458862518,389.160934819951,354.434966662952,363.712145216061,310.140502689845,293.245001726116,297.589770861892,280.939171670307,231.479389242793,215.156226712228,210.261869115339,198.973053178017,186.34901642175,160.663866725244,143.866600365273,142.06118712834,139.433161298336,142.806034200575,141.576277443866,160.886716514195,211.047798051298,254.009406814146,299.457424235595,282.724366622376,263.459134865096,234.918691423644,239.790725587251,253.157877123441,269.665780608719,294.699151847755,363.825636584508,458.815370290754,492.299144933106,526.847343350238,497.89979740805,455.332345070057,466.902499126557,566.639736403415,505.681927876518,551.720574917734,585.025529064249,561.205092064401,547.036763638998,481.771525059179,412.610243790014,298.598419869433,214.181540024116,271.867204992877,341.461326084368,355.945529562799,278.513741584266,259.88434822085,253.796876380563,235.668187994289,224.007510653049,224.222667751948,215.213403657141,213.989941178857,208.631693000732,206.347776425056,205.021033370293,212.510031723312,250.884856646044,253.566504367228,258.11356537949,260.409729013626,289.341815747314,286.604681742156,311.199578838852,292.237262173622,284.306805997089,308.703188382202,276.31020794995,262.341110613545,266.703496167673,278.800998771429,291.570042187108,328.332842077419,298.223287701535,272.535466554109,310.829144139237,341.516418744122,349.902811837291,343.842423463398,344.872754892767,384.067811633049,411.301926358622,360.529037836738,332.178661492275,371.871322933325,362.409319718821,317.340167600454,317.348662310891,325.260438461097,372.956819410719,332.275200279859,290.667675244845,289.416250212986,272.674545799055,271.666061803766,270.298896246251,274.551004902164,284.499340320477,312.878538013313,343.629818429309,373.326855962691,373.088885709094,340.063850389416,343.084877989312,356.383188938331,363.930601959756,372.58799931791,358.023155919947,403.277879006167,428.019925600803,416.092879629138,425.073307777418,398.805167139042,385.379050464778,404.139932024576,395.749007627085,390.146267367839,386.99639167038,373.916454862038,360.738486210152,364.294994396102,358.845583332661,364.095040858831,364.644618549884,354.017518932032,350.189890003548,350.505593439967,354.057934496827,354.399995320089,355.200025623863,352.014684679304,351.367566356973,370.561843520578,404.339709133108,428.686773690547,406.64726279413,374.600491841937,369.487157189492,382.635568395566,383.620906172683,388.385286332281,411.011187377047,423.535574273526,407.744873217768,407.821839317093,418.190310864073,442.183361696397,447.589464728786,431.41724700491,427.524987138984,429.358419357366,419.833626947535,415.879335053107,419.707933051202,424.759598338425,429.082048374238,430.009061439487,433.12159514696,435.840921449909,438.755898876844,443.426463182472,448.276781477512,449.26370494092,452.069649359874,460.550685799867,467.277062900913,481.223721481064,487.91627023057,484.656162409076,491.64450015105,504.462216385373,520.683876862299,517.870506604682,517.263615666525,519.60281311425,532.5138424125,535.115170436878,538.555125913913,551.821351117814,573.126024259127,643.410222397012,707.069363570256,773.263428211431,804.79817728116,848.58824617746,884.319344663581,818.162263017719,764.259731228881,816.852096342085,856.345630458324,916.366107728163,954.015046727737,946.827137705024,927.162439443456,832.106017619276,767.228249737231,775.982722072161,791.70357841634,864.648262781597,902.826269081904,954.438688335129,1027.44669755697,1089.88844794383,1047.01985416966,1040.60000664295,1027.36295779329,1011.32931832824,1024.53007502167,985.138254143531,942.129376539529,896.162576236831,905.74191679441,945.376481892192,1001.13146530709,1039.22745698049,946.860549930887,942.594617030247,998.721510671279,969.827453987002
370.150886322502,355.293086484008,334.696311261844,373.713467005347,405.043571136404,326.920825698818,298.451144239544,271.933969663361,250.17045627079,264.535664086498,333.98502690152,360.02261851757,430.977672225707,504.000066446798,503.688501666023,442.801069382933,396.865621776456,406.86391473896,461.815410745281,523.361900187397,571.495744653604,630.247784853312,693.066284410932,656.067486933132,595.612905680048,608.131103434256,647.013350549626,677.059654520475,611.994490605871,551.590640388024,542.780231298237,511.60225857099,444.780890937684,416.332931052724,446.103790823012,483.701786990352,455.406958115904,502.210704236219,512.192406241061,490.826061937422,473.816458486198,414.105362187018,324.589348972589,316.388661765106,282.815110803651,270.835137167586,266.344686556101,244.015187866433,206.04998131327,199.886786111092,195.013256839228,183.203013493734,163.857386296621,150.67021903946,140.949015554644,139.33251442352,137.790722254515,140.649569465873,140.205654394956,145.547673444673,171.593183138251,205.47143750639,244.304482286501,223.962657209244,211.538003872461,238.583373580192,264.35961607674,280.447972819426,276.474911237713,352.121116906058,428.372678820015,479.61738426217,488.803051883023,509.893661785555,482.746096074982,413.197855265074,419.040847207849,521.449282995406,442.153626113768,495.884036695698,534.806663876159,497.376062395277,488.489280211879,441.401211331538,375.10106370702,278.591571252246,207.9123353511,250.838077138604,319.394922039855,307.364413718553,255.504780137066,240.031185677965,245.31150591719,219.280864391394,213.588688422636,214.778579397144,206.424642211021,205.747066893345,205.40180283929,204.971426409933,202.740648312812,204.036778767842,214.149136098358,229.59882994364,242.296146113754,252.680033278888,261.442573959566,266.871862560722,280.007753950325,264.325106656591,273.669358402347,279.456168264528,254.870193204951,249.841839067288,251.408646820424,262.044326735226,286.007592491673,271.034598652327,263.092611083887,277.203395330167,320.669531168207,318.806658871966,319.644154583147,329.092160082244,321.456972943074,367.286735246739,373.197154588183,365.303976957309,312.501873529948,323.701840036014,335.518644554576,314.666641296475,303.430662451075,352.381608096553,354.191138980308,309.077122410275,277.515092759469,272.572521310049,270.745545933915,268.580123498901,270.618979621386,277.051224228667,294.118949723227,307.50021435113,325.244447065319,351.905327990865,381.171517215295,361.963912102765,357.234253495915,369.446031131769,376.862108023348,391.238339698771,359.815040062252,385.182594661544,422.851540978832,431.542318631977,436.786135259597,404.375029938528,390.928929524943,413.691945971469,404.729274861446,399.160424192489,400.235472638853,381.214315241343,369.474009161873,365.302172348081,360.580217417169,363.830584617906,371.845755777756,359.132533079235,354.384179678507,353.276276584802,354.521932585685,354.686430877641,355.157020401599,354.215359089337,352.342661275142,363.772641395549,403.277843589732,419.220101400381,427.262968015153,389.637779394837,393.285805733464,399.256111591055,393.00145180424,392.712441286549,412.30927795668,418.696522560325,414.090351420981,417.366623401083,432.073519426051,450.782502846129,458.540622545981,438.211107604385,437.035590713589,439.045342936203,432.507572294385,419.551682674623,419.18780144491,422.388420692591,424.724994734095,430.197370975218,436.735802992233,439.424205494758,442.58898738141,446.183633660332,450.341654417056,451.302147876627,455.979700198567,464.72419038741,488.182029045666,486.251953867849,490.204849986366,491.264688372564,488.737993739872,495.129356285704,521.133964499106,534.175598616721,531.785116455165,525.689700904986,530.184087939592,553.046139101615,555.137368894089,566.283302899691,600.214675684554,681.92823146415,733.193383006527,793.48087128335,858.978846329662,855.020086104548,880.121005328474,856.074711016237,771.308997030393,804.085580858534,864.502820312317,928.87072487836,984.265151087861,1012.39227604806,972.299164801038,855.030013904179,783.666201527146,779.491967625195,791.384791057008,838.137877803795,916.047446611914,984.88981432944,1025.7524371552,1017.57285844687,986.152250457561,992.928236180865,1029.76669784819,1070.04163912044,1045.00027117158,988.104431674842,956.81443056846,929.771070129152,936.823661173752,988.868364038467,1027.80324560533,1058.21556370317,979.909723442722,969.623224809161,1023.20659972792,989.789407411915
350.79303909866,332.105231034515,318.730361695015,363.763592641535,386.738073593854,335.983288536449,322.761980609655,277.217091600295,243.710309128874,245.826909980535,289.761325315223,352.180328836618,417.153774367094,471.130417762071,439.2524651782,386.155431696654,366.433464589424,385.434379942456,442.74325509231,532.058223428052,584.031935688596,635.955732408171,650.232891873738,603.908036643601,561.452264734038,567.388832901354,601.432619094439,632.436185074099,620.33248201455,565.177166650256,516.72070950718,507.198410610314,444.412532785436,396.311236544534,444.237236109915,501.820344288223,433.413962246307,417.396801463406,470.863700037066,474.301889439652,435.35116464482,380.146176345838,307.392372637773,273.741365875733,260.114387061434,251.583843276013,241.537323260726,221.332507575299,195.245746773782,183.452674326821,178.236678540583,163.277568531296,148.084885655713,141.297050988323,139.711036522621,136.227955486696,135.775353745393,139.454858559534,138.006062244189,141.925251599267,162.137257089615,178.564601418305,185.541168731586,198.474379801715,259.79633281093,309.0005879556,347.267767354598,378.593785573826,342.207970398845,391.464841958078,446.71774052501,467.186940293074,432.088668299944,419.268673378687,435.990208643796,436.544120285298,372.951354274012,436.913967547495,404.393184264847,470.061793508261,476.209658254677,431.778656881433,431.701190847413,394.676031198159,324.139126631808,238.584421864529,194.525087528806,222.073755361449,244.900274572539,255.401967542751,236.785659885774,215.153314753923,211.240235351226,208.594106374127,205.4801589394,206.179883787491,203.053184225951,203.088669638717,202.72408667924,203.163407303323,201.314625386651,202.029140863753,204.673629173046,210.194945412411,214.165174967867,224.090069318607,239.194784613484,245.255050839279,245.238213912308,244.748308422249,244.251750234104,245.934273338404,245.133677832192,243.486780385515,243.9526076711,246.647535993569,244.423388726807,230.598679187929,227.488960773564,242.096400976331,292.060297333164,295.39237746349,314.084002805726,327.491473176678,313.764209997621,362.298718993863,347.46346024092,329.359776140558,317.109565444058,293.129840446633,298.926136183658,287.585434531212,297.947169645522,315.87540323779,300.073005874915,274.863752201036,268.467181244246,269.423704431998,267.714157946373,269.384976724054,271.117260386828,279.010708315669,304.214866106994,303.575137334653,337.183706004593,359.709867682099,387.97709631755,393.237843202727,383.51526688919,383.320559248161,391.398351638152,398.717666040354,374.215707367104,380.267939111441,402.748350651451,435.883157982554,437.969498588429,403.687093316869,396.949495037407,417.574155718093,418.920859972638,407.402779622862,405.256707943934,384.24911812274,376.077271553801,364.755325430181,360.595761297859,365.892431112464,376.839811805296,370.190319252023,363.731824449112,357.831679635302,354.860453897238,357.137337903975,357.461464042597,356.367311263125,354.069620768118,361.373895543255,394.162128730002,412.017907457595,421.40150852288,397.696536216647,412.30252318666,434.24783819316,419.940881134772,405.513658178322,415.21719603939,430.398795481555,424.276063753616,429.013944549264,444.720623052106,464.361246569218,466.444228071747,452.481912961262,450.333461468332,449.336325194594,453.909813735464,431.33255766925,421.401813636653,424.255024350901,426.206764754452,434.304541646558,440.987864843163,439.083615466309,441.073600377382,446.537210880002,453.649995966807,456.262724456513,461.771280394124,472.85491721049,499.784905587699,507.015795655217,493.231178616175,493.958140397959,492.851321800063,494.047157086361,512.310361889658,533.834479782883,542.461112031247,536.692133506764,534.274697643911,557.209084767016,583.550640069844,579.67570676066,643.102950037023,734.507749735042,766.117013873745,824.887582732611,829.79466271191,853.21639384519,904.00481635004,891.930416051687,811.87027228854,794.223229104215,863.97431912784,906.213061119918,944.998780213423,981.674338709952,968.8536079394,880.232604693055,833.394860329002,865.892284936089,812.29721544011,833.672683708463,898.941442765625,955.841805752298,959.405569512312,942.919649511163,957.767902138484,1012.94521229262,1067.284012997,1103.34001240541,1070.32508213425,1004.37829745302,1007.79198847376,963.06586579787,981.063113818344,1042.57383496883,1076.17183280233,1080.57697365325,999.58577547813,1000.24251363559,1048.9510501611,990.106844048131
