0,0,0,0,0,0,0,0,0,0,0,0,0,0,0,0,0,0,0,0,0,0,0,0,0,0,0,0,0,0,0,0,0,0,0,0,0,0,0,0,0,0,0,0,0,0,0,0,0,0,0,0,0,0,0,0,0,0,0,0,4.26771820080556e-06,0.00221490298782411,0,0,0,0,0,0.931807246210116,13.7262563585111,28.5643651130289,30.0791586541029,35.4803741550001,41.4197442268963,50.4868822795237,57.5126512334167,64.0037149993112,70.3969789382422,74.6480385467937,76.1808952980922,73.588251283143,68.3112270178672,61.3655778291942,54.7985531360833,42.1919590808077,28.2901189205649,30.8505152811049,35.0961443938066,34.0564023111708,38.94689519266,42.7994782654953,40.0214654210962,62.1422458700546,81.539385586745,78.9557453670242,82.3393169879812,91.9184780428738,98.896844286813,103.008468874163,104.548471647643,104.544251944647,108.154540140039,113.366149696237,116.032476266934,119.105450385599,118.460343101966,118.677830691754,114.864566175564,109.67475931287,111.782608100276,111.44826209728,105.041244827632,109.577531238568,114.641897806077,111.261065596359,109.255586240718,117.053542006216,124.40519971045,153.140063836938,155.067452508924,144.288202537761,151.702824758853,154.111071565934,159.31766400898,165.879645770893,172.714281445553,194.987391813497,226.8346326895,225.758818597826,205.019094813617,216.491610393839,226.053861731058,211.501121987772,237.423592940958,305.996583174826,284.424606198652,242.902126282778,223.415643924851,230.59075880015,236.020267895363,242.780691165934,250.060071226304,257.419189905277,264.541597415853,270.042166379214,275.713666206375,280.887387942729,281.238712667746,286.783336143222,307.567901436982,332.324704924101,344.778042024519,307.801608898606,305.912794705942,312.608864690149,316.076404579518,326.453211123349,356.922289244279,383.725323259035,458.9961475771,499.579613153891,475.82571052788,406.25925888818,334.872160293012,302.568851327712,309.883546922957,315.548220607353,324.491958775043,327.62468104666,335.092478907631,331.2984211958,329.878520592959,328.082491563721,321.913587429891,321.743453652036,321.93059491715,319.079142976164,311.983933746412,301.69914802938,294.538638134753,288.496022054881,288.52485089336,288.981803243525,288.312154514739,290.046942092156,292.912447381923,295.530722881859,301.415812625889,305.101338396434,307.679467157073,311.067127760946,313.060918151402,326.751580382232,333.467587347337,314.363652281149,308.339168292709,304.901461675425,310.218821971525,322.131240711259,335.523081003737,340.870958825562,347.490352968134,354.031361726656,367.845080509411,383.34267568786,391.638970052598,416.404521423451,446.942768584856,500.877245298641,566.704905003114,644.698090571454,790.722026429868,859.791586507861,911.239633579148,1069.71252926365,1220.39403797107,1406.78731485745,1473.28658762362,1262.0972796688,1044.51051161813,947.307092144697,834.752423080173,913.557308036475,1086.80779264321,1165.50862629047,1197.37774289092,1097.11106302059,1071.83366410719,1156.17038525864,1061.60791375721,1056.14742391534,1117.83992544355,1230.5217202653,1314.24883379689,1346.38204910252,1549.35812625904,1609.17222172749,1559.91384672515,1573.86350389555,1429.05773572232,1353.0032094826,1353.26802049611,1234.71003316885,1242.76201281287,1241.14411711656,1247.73766905791,1444.4267914902,1525.02244421943,1435.55477821211,1315.04859499344,1194.52401065016
0,0,0,0,0,0,0,0,0,0,0,0,0,0,0,0,0,0,0,0,0,0,0,0,0,0,0,0,0,0,0,0,0,0,0,0,0,0,0,0,0,0,0,0,0,0,0,0,0,0,0,0,0,0,0,0,0,0,0,0,0,0,0,0,7.63733213825148e-07,2.7708162568153e-05,0,0.765664115100827,5.90333026458101,16.4872034555807,22.986706848237,26.0338309509897,32.3745356528214,41.176401111191,50.0162098339368,56.0896291536776,60.9169086127078,65.1213020802582,66.1993080006781,62.1382818493961,55.9501202366336,50.4329459314798,42.486985791265,30.1888313141635,26.9642242930024,30.1980915623854,35.979511575494,36.8538698263939,40.4923909404477,40.2218467056595,37.0885851539785,46.5250098457281,63.4994426543911,70.4262640356177,78.2013799898437,84.6013379884076,88.8017452519283,93.2234134436095,94.3845962794431,96.5931150007397,104.82624185895,112.344382218412,115.981273589668,119.144300676945,119.696543681861,116.620570889032,108.610533512916,100.337487772092,92.0548460835531,85.6431730283654,93.225136394833,96.9563728448157,105.967069908291,144.7417866441,165.355187800756,180.798145973761,181.9894631905,194.126575525644,185.095431978552,160.78031589198,163.445996334534,173.720618031459,179.578839628583,187.183329381676,201.278667739693,216.097830905823,205.889836126797,187.781086341098,186.723621279602,194.386276785261,219.472721987035,248.578434645173,291.994521885344,326.229217475072,354.430663174677,292.587935236296,229.915891303069,238.882090841188,239.115877149946,243.406830429274,250.308843463881,257.218092647299,263.654362809248,268.742035126981,274.127160371367,282.426274341112,301.639822206914,303.942123665176,338.606567390335,399.25607548698,401.136341037595,350.450978068452,353.369036426904,354.191557339624,329.609715313565,325.698787927964,348.882360393485,422.892646288152,513.417408109722,527.746400059223,410.414962781853,328.529858978891,306.439187608028,299.037708297069,305.810386291489,308.855507941088,307.750780783214,308.854346991666,314.981874436835,323.487460327975,323.014176075396,326.409011801817,309.536731842,307.560501067804,310.557255977664,309.704360290108,302.707965876983,294.594945768725,289.179291009749,283.605664811356,283.393880476304,283.767836756413,283.798666718538,284.296856309897,285.622059344528,286.740955797925,293.193660078624,297.085355409544,300.356374262099,303.867910908454,305.201146849085,326.203823582619,314.585515655345,307.081701791617,311.165758032446,307.574290244513,313.535499983534,335.527738388017,356.14594515404,353.476041090089,369.92721135936,383.565195951652,397.953813847011,411.19145203147,408.849704441053,425.749083051135,455.354090200281,492.024407063342,536.187142871534,611.200845569907,722.199230376071,789.263436221467,872.471459097384,991.412068435488,1125.33628350978,1191.57810735784,1283.72313213744,1370.21978248936,1296.51679616836,1104.00802002133,982.604205602049,982.230931323577,983.645516130945,978.828409878432,982.563282250396,914.008548039065,1011.75815418757,1101.33693147522,1022.32976950469,1206.30003185647,1239.56580239134,1205.33128790243,1182.85032151758,1263.43038732303,1391.60051077698,1442.88214158341,1397.87344303101,1423.84181657443,1303.14061870194,1223.58523038182,1331.79855565622,1319.72338720217,1178.65938132831,1111.86689897174,1240.0085770882,1272.21842781715,1247.92643832175,1185.15202636119,1119.3746519662,1097.74290320831
0,0,0,0,0,0,0,0,0,0,0,0,0,0,0,0,0,0,0,0,0,0,0,0,0,0,0,0,0,0,0,0,0,0,0,0,0,0,0,0,0,0,0,0,0,0,0,0,0,0,0,0,0,0,0,0,0,0,0,0,0,0,0,0,0,4.72572758463172e-08,0,0,3.34392759399082,7.73330808350111,15.8231148598491,19.4579918511083,25.6198021891635,34.0286290573717,40.5957273310921,46.7341549509408,50.2061259241522,54.5762180435415,55.9202248100131,51.7964883194201,44.8240729063276,31.2257551059269,24.4130192596316,24.7617809467559,30.216634586223,33.9710255410283,35.7685461171484,38.0130774503745,38.6100924403438,36.9315514088248,34.7067862272848,36.2349833190769,53.3963012601163,66.5743607105114,73.7888670929468,78.3419108804965,81.9819020184002,86.4558204910652,95.6164858650064,127.606066667963,162.934548055984,183.226033100508,194.564246778699,186.577284908795,158.146998856174,129.798318554312,96.8686329252722,92.8168354566559,83.1424893071407,99.8693803760897,126.012160382435,147.397568445242,209.835011740387,259.626617612865,250.47653701248,242.602329501452,225.988516706097,187.934920495513,179.912487355579,212.971149792608,247.877339847892,260.25484321122,240.454018122277,237.544307836794,240.588776798447,234.031224744443,188.609342492226,183.13452522036,188.479923242264,201.849230869568,223.120223625059,286.919645977342,350.611388290285,337.40539619019,318.827038834979,272.7624118748,239.850719867571,250.991242482307,254.231880907587,249.096405222397,251.225808506184,257.678995343681,265.095704235022,274.271106944932,286.931179046254,308.630451127321,366.583257800105,360.354804972752,308.195733701586,333.268992715322,380.402679543617,431.960340714989,451.03154302406,408.209681467275,390.20324822373,409.366542709706,486.060425916885,564.584048016008,635.677117106151,548.991587785319,405.219751034482,314.670738078972,292.665648431465,295.811929997522,300.036393855177,297.997272568512,293.25085917966,293.765679323166,294.11018762759,299.293425912036,297.697847795452,293.101803287508,297.060207424832,300.046309238338,301.482684864121,300.727713949632,295.692060593058,290.965100980111,286.475835446254,280.31157665527,279.599648413968,279.692637528996,279.815218384699,279.932386769959,281.289785322646,281.383014383707,285.15136148426,290.205388504982,293.809399671543,296.412291649864,297.592341143255,294.038653492356,290.351971352521,293.475682970953,295.001366283275,299.514763397914,306.175980648033,334.216379905735,347.799171950203,360.54540910249,367.838305551415,401.610576755296,449.304949726758,434.58593837127,422.449691633278,432.564660447715,454.14495977723,490.750248580811,542.654664694638,601.009339447234,659.53339156715,718.369699990178,779.840906802603,889.599104388533,946.843760641063,1025.29748044501,1228.2450625166,1241.23210789674,1283.01599129263,1256.60243492526,1130.27493786185,918.627320292089,850.194606742977,864.406257331063,834.221527131283,798.61667016396,904.712618736296,998.419478341944,987.121348867546,1081.75162146023,1179.63464363427,1302.26359867984,1335.66138112976,1338.6024112425,1436.42347463335,1388.30199660345,1289.99639627896,1264.46768357494,1228.41858087234,1181.39125082369,1268.05144151756,1248.03043985197,1132.65397532182,1149.51821562665,1247.31783687929,1119.43839905423,1036.20915493414,999.258083048496,1007.89978662993,965.186059116007
0,0,0,0,0,0,0,0,0,0,0,0,0,0,0,0,0,0,0,0,0,0,0,0,0,0,0,0,0,0,0,0,0,0,0,0,0,0,0,0,0,0,0,0,0,0,0,0,0,0,0,0,0,0,0,0,0,0,0,0,0,0,0,0,0,0,0.000565640085269509,0,1.38780445795145,6.08066565933056,11.1412957320692,14.2055174552945,19.4402716270538,27.1443347897753,32.3983420377168,37.0581933388228,39.3727506229422,35.7779346930424,36.1828569527036,39.3876463858674,29.7550674640106,21.1541106337756,24.5666548659115,25.1038202036301,31.7173429137216,33.2118788935301,35.0079910049986,36.1175848705877,34.2444633388432,33.6167883508051,31.7187197098255,35.4283449982897,50.346581305457,62.4184439060086,70.1141905441163,82.0523075845171,87.2068319192287,101.530225770273,146.977199687492,199.695296684219,219.13599130631,218.990692349662,219.556547283586,225.677294821579,151.031336359362,83.49818430046,78.43607822852,76.8297924398337,106.517563143363,169.153914812981,191.033779546101,214.742645425814,229.899213486477,193.959856964207,210.37722451453,228.578500945792,216.664845318871,218.255687205018,219.527837063431,236.135620717591,266.468459782846,236.804115067953,214.267804951568,201.685416405115,204.287236228155,205.398028454582,190.462107238563,188.289647602483,196.516871236526,215.508575568644,225.238988510578,283.165471890623,325.426827820182,283.939453459797,254.317883982981,244.181789915185,249.691914992859,262.767267683274,271.360291459147,265.68553385969,273.219590418264,276.278807448984,288.49239326729,295.932168381536,297.791646019782,322.45707324152,382.052669311894,347.842614356621,328.716222219476,363.245276936971,356.509755133342,394.558747031548,447.813517280462,463.067535859715,513.186062722803,586.003717442205,578.83689609741,540.983031546926,595.201359361025,526.091993207682,369.137285638203,299.408594704731,286.954482378188,290.453241768946,293.408133782979,291.099901817781,285.715621953474,281.357635805374,280.697552576248,284.119139168769,285.872957951493,279.930955074445,281.777244923716,285.354493289208,291.414377751163,291.887048870134,288.785315601192,286.908494298235,283.76468270092,275.758752195827,276.231402588497,277.321906031367,276.269767405544,275.739548239233,276.284622412845,276.998629886512,279.96501157407,282.944602703004,287.370955146873,289.621110614952,290.624624576624,288.236478860513,284.769670374142,288.825700688395,268.035575313767,252.659735105827,296.375151604296,304.004181847634,322.993488083482,344.189836653309,342.600091367678,388.64674629954,488.27906097,495.055148780116,479.885943331472,469.212879393739,476.652803532538,493.459155967473,527.627619361895,570.022492587487,598.165736780773,642.56786640499,728.829350266024,775.199197121693,811.384332564034,947.196143161238,1069.56130999418,1058.40261946731,1072.24821904137,1129.41376707192,1165.50835455334,906.370928430242,751.686209903275,755.213546766454,682.770945179123,743.857872619873,855.014186127281,866.123668403033,853.187495225373,988.892631471178,1261.48528079985,1405.79238954561,1533.86901384572,1599.88447667492,1626.71820892851,1511.85470951771,1383.6741838848,1249.10738762335,1167.29779468863,1100.28614570772,1113.1867707605,1096.4420656216,1044.32977164496,1114.77398190807,1061.92843426143,1011.73817089495,953.27924365148,929.438490993054,962.509542850055,900.693451541247
0,0,0,0,0,0,0,0,0,0,0,0,0,0,0,0,0,0,0,0,0,0,0,0,0,0,0,0,0,0,0,0,0,0,0,0,0,0,0,0,0,0,0,0,0,0,0,0,0,0,0,0,0,0,0,0,0,0,0,0,0,0,0,0,0,0,2.86048851007961e-05,0,0.540691613064798,2.18265732169448,7.84878100339523,11.2241378843992,14.9828745719454,19.8155281375825,23.7033682217905,24.9212092385298,26.5797918540268,26.0946770514169,26.536306694091,27.393242695829,20.4999615203922,23.3801088413725,24.4397047751049,21.4665255986895,30.322308817141,31.553978227751,35.5339705916382,35.4264005542504,31.5368877444477,30.4628965932787,29.8456828664386,34.8092496338736,47.5067911100984,56.8814714676894,71.8015859464811,93.4687247735168,118.938279303125,149.254751901533,170.699494867985,159.789306034646,145.619025313094,132.145126547395,125.214600252678,118.610549828953,82.8842456486713,67.6630032221549,72.0489594213348,84.3852057148678,133.535104744633,172.680168797253,173.321867740241,155.896536192906,135.806432968371,123.082636059942,136.769549887526,140.747295303737,152.366204314959,184.179470755329,173.62588022295,163.120549966767,157.552356207662,144.809415636126,152.408848450279,168.316802422302,173.736855737174,192.220311631435,195.206591275857,217.841178719561,257.447238257864,245.032978026645,264.366191060202,296.566032183874,286.948771682596,259.950673426984,255.955937440793,255.179993297607,259.224222801483,272.043875407773,283.499954633429,306.238990181544,315.947304974221,309.651072729237,322.487886504942,344.980309039157,336.653865769234,337.38718357511,369.569490159857,359.809707557649,359.408951868894,425.996381258254,378.217673752681,397.638383397102,484.534506723604,536.667709167312,574.839983843949,647.168208288569,555.624518279474,492.533901720105,502.854742635944,440.697650186707,368.946675201445,295.429196478906,283.526846825868,288.559671705169,286.855772524572,286.31586098774,281.675940812369,275.763034079074,272.56352901946,276.268602739346,276.558222015412,271.018820547579,270.453010316167,275.899998488602,280.503076035159,282.336250653455,283.651492309468,284.088798839398,280.029937355847,273.123094926289,280.725406579311,279.52493347209,272.284725433328,268.760387670986,269.740461672581,272.414610532994,275.190767529903,277.005322226881,280.511912998897,283.21990194914,283.596820620316,280.376978591686,277.980346939028,280.911562684334,283.776321067875,271.13747542596,273.860175842059,284.960785834052,297.696300442689,317.432931999942,359.437061841367,424.95292387121,482.25505133506,493.96282095147,508.141411597491,547.363476224613,566.312588161725,564.382815381336,538.177639420133,547.504727737206,565.358835573955,595.864668572323,641.678916365662,673.204017999347,699.478873889959,769.655020215423,842.036579244178,878.374902259932,918.028866381772,1017.97850913351,1178.48502366989,996.948975030503,799.489980819447,649.276628367811,661.556215429274,741.119752492505,789.911162138067,856.306624064412,895.531291013965,960.253078955716,1150.26586095359,1310.39075756388,1498.12105940344,1632.7976307231,1675.13787669297,1681.13374202856,1594.94649899597,1422.73330544946,1294.74990764504,1202.5043172868,1082.30423711069,1027.49033768427,981.315260042252,1002.0262858207,969.910060302004,887.160521459979,876.042543302821,855.540789496082,860.606457201361,862.375843311049
0,0,0,0,0,0,0,0,0,0,0,0,0,0,0,0,0,0,0,0,0,0,0,0,0,0,0,0,0,0,0,0,0,0,0,0,0,0,0,0,0,0,0,0,0,0,0,0,0,0,0,0,0,0,0,0,0,0,0,0,0,0,0,0,0,0,0,0,0.248735732570057,3.40642145759426,6.09057257968123,8.03379446034046,10.9335791557191,12.9582610093282,14.8637335008308,15.0371593820559,17.2889739565923,19.2187170567595,19.3625502138158,20.3568141172465,21.3885192140694,24.7566487911566,24.272623698005,27.8058201863368,30.0722602081692,31.8424518776702,34.0739897940493,32.719005772228,29.4428303191085,28.3495657623706,27.7992610601094,31.8939620294673,41.6803449810398,51.2592363202984,63.6615065217705,80.3710276174846,122.98537957494,147.080160563287,134.618298277337,95.1168346799273,87.1407032941505,86.6459080564094,85.4867995834023,69.692140136715,62.4624603018526,65.3865178624115,78.3151341081327,103.079707549817,124.122782458564,121.844090122184,114.234634836216,103.734587925162,86.5264071850636,88.8938729052748,95.5095832397636,100.739058597063,105.625333505239,110.030726391061,111.466915216269,112.327500220492,121.08000491481,114.892304644292,114.989425096541,126.10957668353,152.788636922035,181.226017960422,192.362270389873,251.971937718323,307.366607055876,281.525823236237,286.469367432078,310.223176577484,292.886089459712,279.382854138453,285.010366120535,295.468651423334,292.589313286358,293.07167863462,293.255326600354,320.083345638602,342.034490456461,355.987861186412,359.959529722905,389.342240210852,363.891713806016,357.503078440237,395.188814039715,396.133074053623,403.878105182771,422.634500759871,440.609650336181,518.312827839666,588.036460103898,618.922155104969,580.110182522556,578.130438062346,505.02932167127,402.06199719231,351.624052261967,324.658744958589,313.559215523046,299.794959718238,291.772889995278,280.697131681056,281.797165000209,280.25892241969,276.80332816641,272.002885987958,267.720879123681,268.025914660988,267.605396218343,263.757861385159,263.677835141658,268.842353502274,271.861592960354,272.054077464521,272.682703306866,274.360231395783,272.928997504937,267.033145892417,267.881914080857,267.186623198498,266.048425065572,263.662368288905,264.218294201782,267.923387969917,269.475201805482,271.252310903694,273.32304825849,275.761492441298,277.457186671524,265.938974041889,257.805223620154,278.054352979971,285.521142212888,281.254700743735,267.397760289511,292.631108336919,334.905494358483,369.463962901166,405.021695516177,434.534750174801,453.270241920529,445.735163477295,440.015953563732,480.682373618608,539.09966045539,541.366826106085,577.701739328808,608.791724339783,573.113596945934,562.927728947745,588.238718612976,608.903467904903,611.691480412762,655.296315678752,704.0541036031,732.522197528976,796.474154471597,956.098009751809,1038.78598131549,1068.25575963917,896.208589661742,618.598791755974,698.92547876924,841.352147708986,912.990128154321,1131.37525735033,1080.94974426656,1042.66635877816,1034.5657618363,1149.27494919306,1273.87636173139,1401.20170335836,1550.64442365267,1703.9102116277,1658.99141306872,1464.42835300911,1329.01389216685,1305.14701395605,1207.7704718664,1167.68755126493,1074.27381728894,981.107950868781,928.647839040461,974.173520862468,1002.46462504568,1013.73732936488,897.153107598896,813.752091189457
0,0,0,0,0,0,0,0,0,0,0,0,0,0,0,0,0,0,0,0,0,0,0,0,0,0,0,0,0,0,0,0,0,0,0,0,0,0,0,0,0,0,0,0,0,0,0,0,0,0,0,0,0,0,0,0,0,0,0,0,0,0,0,0,0,0,0,0,0.132565242589216,5.17197240802157,7.33650204062206,7.09405250325038,8.24848146306813,9.61417429333228,10.0467288564193,11.7677426014713,14.3833634249444,16.5059782049615,17.044711538764,18.6676957813116,22.7361351256539,24.9892531455337,26.8428932368062,29.4453891790381,29.7448014682889,30.864512474605,30.2247291855996,30.3023497334442,26.3282193757074,25.7900115773244,25.8077844549816,28.8222527460853,33.2155255014962,36.1659719352501,45.9985890305493,60.0650569066983,96.5879320796026,111.691898972511,74.7867606414528,62.7556435225189,64.0566119499717,62.5260604314186,64.9674207807996,60.5640663515593,62.1476272220976,62.3053423609155,70.7449865623997,97.568716733757,94.131392094582,80.4875974756927,70.9461733260653,65.4476490945825,65.8236545442073,72.5091015590372,72.7588941257106,78.4097341695674,83.7676327316381,78.426352757415,78.342133070299,86.5602900799278,88.3778111464717,90.1692124259504,112.034093187752,178.502870755142,222.20706580747,259.96657689189,270.582937471781,295.474807501568,305.08859750855,290.833350083015,346.916947963499,315.706908968648,309.615333461549,303.861513837138,304.809393732406,334.68863743416,355.637114379925,340.720304992859,320.776260158801,353.286719090356,354.067817429437,388.149798604383,452.29091275013,480.630331803875,410.668354210729,392.362555368674,432.283295774477,427.29224652797,496.582294389609,537.037558432691,548.152085415785,553.881985957475,569.930503613711,593.144413391457,561.158637948513,478.446995905875,401.623016296839,318.547207135428,289.578337170704,278.65520053666,268.35366334687,282.879691480253,289.437882996833,278.003818837999,275.655947902672,274.686119109596,271.908873772538,267.818310821797,263.324714070365,260.215745277483,259.933920180347,255.519021627643,256.618163543686,261.483755029444,264.468451254773,263.40839884693,262.327193815274,258.360116299841,258.753831635342,260.900999350967,258.766544464221,257.603097844219,260.605590450298,259.485655419804,260.008870726698,262.514917594922,264.164140477576,265.278207200764,266.641903210747,267.877939692706,269.016694830524,266.69173340126,267.372124666029,272.876467623708,275.065403463078,277.241157110014,272.525224498597,277.040225005758,302.820303383726,325.393570442611,339.117844100547,359.411364805908,360.684030070264,375.678979710452,392.275939257065,469.902682887612,482.427535068705,511.762237394136,559.783192129716,594.921731124272,563.947664561649,522.757449941377,537.536064865558,551.542039031101,557.69164022883,590.595979258752,615.261756805992,665.061308833302,773.886404442736,869.416332290994,864.230313395869,1003.60048657307,891.754059443333,670.650674212437,592.386141535463,689.84073015458,840.007749579672,1052.78163461766,1260.41504185647,1263.28911637355,1215.85967731716,1193.938420661,1308.26335955636,1356.01812468332,1451.7006641776,1601.46910781523,1511.22579365929,1565.66911931662,1547.50999399906,1428.58554615021,1405.71772848732,1347.880586579,1269.08046725475,1135.36975178722,1101.5131583887,1095.57276451897,1145.15452381528,1170.87447509687,1047.64845394599,956.647672576286
0,0,0,0,0,0,0,0,0,0,0,0,0,0,0,0,0,0,0,0,0,0,0,0,0,0,0,0,0,0,0,0,0,0,0,0,0,0,0,0,0,0,0,0,0,0,0,0,0,0,0,0,0,0,0,0,0,0,0,0,0,0,0,0,0,0,0,0.000789177037493707,0,1.30450040721442,4.13469616061998,5.40640238362154,7.38841331801916,8.26357371928649,16.8403392552974,16.4305108056679,19.6960262750892,20.1123027825428,20.1958065700378,19.9394539156174,21.4276297656849,24.9535172558739,28.351414782726,27.5931183239584,28.9795747067498,28.4199684916581,25.720309089427,24.491527841685,23.6218019227879,22.7638495922134,23.5397143895437,25.227660258745,34.7296313733791,66.4070764745434,73.9359345761098,77.9130626839149,77.989810962516,58.260532104017,49.0440433802805,48.2468417736454,47.9008500421645,50.1401313751856,54.0374927148945,56.6420767584718,58.9760061776922,59.7334039828646,64.8300192670769,78.5226142735111,72.1528433977966,71.9002047320116,53.2045358939293,46.828002994821,68.5316795059356,57.0237006916275,58.5780989147078,64.1199343482886,67.8499903516899,85.5177653787463,95.7760894117018,79.639378545815,105.573234752324,155.999366716988,216.463441237024,269.069831592896,268.883550787108,271.301674111277,301.162606284653,316.057307458614,326.788791082171,329.454531066073,376.670107607277,368.666549335623,328.104836198794,327.897955115174,324.619199571286,345.294661401848,357.236011650298,346.409758644323,364.121462887802,420.250002652349,402.751794858555,456.863776942283,525.446694468476,514.183301795464,448.856538987674,428.288638892794,488.914125902672,511.066604448466,558.178162301557,562.078364027317,584.44068400425,614.718708084807,588.33158843456,591.11369967501,534.534231653299,443.392700969916,376.488883074589,309.042772970148,272.100667915954,268.828451638313,263.895531971273,261.937960432613,284.462794583909,292.933928011422,268.664612889123,269.156326832303,267.839883874231,263.801439598083,259.574064969383,255.490246872633,251.401436316034,248.786356704939,249.50390862436,253.875794396535,255.084471888699,254.456663796481,253.931404646723,254.010699081533,255.09006647311,257.014229908962,255.504592606255,254.037100488886,255.623631088242,255.041881848101,255.635935924808,257.573588972425,258.410947965534,258.810592482732,259.426690614374,260.646689011073,260.568354199057,262.367254335031,264.312243810821,266.55266647408,264.724493599358,264.183042990969,266.626143714869,264.137989784154,271.247074818763,297.517236308874,324.802287207785,371.207172598436,452.601115955672,454.359259377082,450.260916362457,449.157589282963,494.074141880063,530.811977903986,558.878367842388,574.962287316463,539.928536347274,506.994674485714,489.64225670199,498.032812113393,509.523714241107,535.112013574395,569.663356067813,605.776842561071,667.300502208519,723.766410389761,757.074107677293,889.696641204254,885.472595334755,762.027277936815,561.494049850815,668.485228335784,795.131289092457,902.254299755567,1125.25775665841,1208.49138284636,1231.0015911438,1154.51149344356,1247.7291806867,1404.86075575171,1575.47128807649,1563.80232197249,1362.53834036773,1450.25221654659,1548.86081893666,1638.76913621063,1603.73136881268,1532.01583055953,1481.10029469775,1346.42463907266,1302.13249748944,1315.32728646801,1228.52774463297,1166.43502661168,1180.136122471,1108.13258614563
0,0,0,0,0,0,0,0,0,0,0,0,0,0,0,0,0,0,0,0,0,0,0,0,0,0,0,0,0,0,0,0,0,0,0,0,0,0,0,0,0,0,0,0,0,0,0,0,0,0,0,0,0,0,0,0,0,0,0,0,0,0,0,0,0,0,0,0.000192592433139484,0,0.989173898041545,4.97389488657322,4.71386913003634,5.63986838863462,7.26367011893223,16.3555563276506,19.3983446360465,20.0710244466979,19.0262553217812,19.3150337675239,20.5019101709531,23.2606253472567,25.2816556594207,26.6287982770816,27.2034210930457,28.4875313458891,27.3974779221994,24.6395890831937,23.2182775220329,22.3061372413629,21.7716435383133,21.6841371141387,20.9264827041983,42.5419202830126,96.0425707692361,92.690357889456,74.556583763669,51.8050045547262,36.471470385006,39.0970037866996,41.4986060247837,44.3260192254603,48.558886366598,53.2422554947312,54.9668631186753,57.5150021449975,59.2885701970005,74.5119559674851,80.5766015804557,66.3342801480648,49.7112267658157,45.1701339242108,58.5308886337894,104.543070314682,95.8100671594808,80.7886240006828,96.4592264972032,101.035670064129,161.312676151152,168.596499591408,113.11001634719,215.420804552411,269.398142398295,262.7937167112,251.774282699744,235.052007310046,252.66424245822,273.925228603133,297.295281292013,344.259714947887,366.90455225574,400.414298472182,439.365582814555,401.818831958234,382.254282012561,368.050841392601,373.478167688789,387.9043874346,379.918076633124,413.896411943426,438.766581416917,424.275210385828,484.795249225173,537.73829154866,572.713045058276,525.301165246223,500.223446773724,545.333083526602,594.838323254566,545.085414953286,555.867919446125,619.524984287303,597.415620098545,580.913648109783,556.239804111589,486.174232997345,392.189615984161,352.899179632189,306.38725147608,271.077689102472,278.125139617201,269.976042956728,267.604330886006,291.598089612001,273.024030308876,264.390639898058,263.716494994981,262.409607563809,259.02369462232,255.197750062092,251.631250517751,246.889025233431,243.627256936215,243.830423667126,245.211565913341,246.036813289839,246.361931802643,247.62148612254,249.12966466824,251.953826555989,252.765603285697,250.873177500436,249.928202031777,250.537771505128,250.688843579802,251.542204720811,252.565307661113,252.54891011334,252.87765921286,252.447076312256,252.98145868644,252.603239563619,256.124728730229,258.362033378093,260.214760935132,261.624287725889,261.588610924462,260.31384992148,256.640362623669,271.16268590184,329.497505577969,379.587157684211,432.107017975633,504.608432715701,525.900690916702,554.74416517095,555.954528766967,590.091375812814,668.188763056704,728.046224355159,704.973266207068,663.505085633746,582.898950368706,464.424337918655,452.797543588036,468.817300292897,495.343338143785,532.182561948329,549.536614756744,568.01851166851,614.796804919419,668.567124131933,723.536166047742,707.66673915576,639.579858144614,522.663394374865,678.07832629352,698.422065739105,785.576903599649,862.68378637877,1055.1222802623,1095.86712801795,1035.06686939027,1185.27466795172,1294.21028790596,1455.92076295289,1470.7152639675,1277.86165882264,1246.85443958117,1284.76148096343,1496.1331490672,1702.61237475531,1702.26570203753,1556.93872164933,1276.50461786249,1154.03451676566,1233.42455250965,1175.48959130424,1076.15375389927,1260.59151574102,1260.99096091355
0,0,0,0,0,0,0,0,0,0,0,0,0,0,0,0,0,0,0,0,0,0,0,0,0,0,0,0,0,0,0,0,0,0,0,0,0,0,0,0,0,0,0,0,0,0,0,0,0,0,0,0,0,0,0,0,0,0,0,0,0,0,0,0,0,0,0,0,0,1.0755258862125,4.71118152696177,5.29839405196581,6.5076796639164,9.91397353987958,10.9820212105859,13.2472599596844,15.1342836712246,17.1993666248253,20.0219982407222,21.6675423574824,23.828271079422,25.9929853542269,25.1663048575504,26.4566993668005,27.5554756633418,27.4261317899625,25.093775509204,22.699985805514,21.2139138882785,21.041405464155,20.4380531672674,20.7027861615903,25.8770437149118,35.9630627858319,37.3932369908915,32.3210514907961,29.8090796794964,33.0308996460512,36.9223102577093,40.8412777240485,44.1967580953582,49.3754729298708,50.5742689955409,52.4474901704464,52.1546068517627,54.0139045542592,57.3552700998405,47.3166579240923,40.2261779515795,35.752130401244,77.3042558478682,153.52597829981,162.147021855286,196.902915092306,235.652733081595,209.312497339085,177.172754029516,149.672421773918,193.520328024827,251.67703242803,249.751049948158,220.174681904375,215.216338544733,238.187537664846,238.580885294666,246.958630669796,268.536318431399,292.351298739709,332.515892706642,363.727718451985,369.670308532536,388.537720118564,403.85852470026,389.512278867618,417.152145220816,441.02461402474,424.004916651973,389.85777272971,423.50291466966,480.899187254771,449.813941902499,488.893689267342,558.695178577622,624.025710596912,619.152780929725,605.104105155675,595.29730430992,615.762236387964,558.779931896304,531.938675691453,564.49789033765,544.516666427242,573.814060439856,510.044527100375,424.424988883424,369.877769374699,332.415128698149,293.14940912161,280.146568922004,275.868648285784,266.198396233915,263.378609568783,263.164520211474,259.230107864953,260.586127368691,258.861195478346,257.491795063825,254.752831720486,251.348440777202,247.255153649675,243.324487848709,239.556815967622,238.393177448576,238.90939830345,239.189676028582,239.866860535638,242.193371562879,245.227660563678,248.379277766152,247.619704540229,246.310239360854,247.327135926919,246.839753306063,247.136807331041,247.493706618547,248.538197895247,248.039308572293,247.36382198194,247.133484233487,246.215920950853,247.982859592451,251.184165870303,252.44173688294,254.621923580071,256.036948818374,255.55876296666,253.368994348327,251.210164586342,248.500639561,280.326111864131,357.301235134637,448.828260461298,476.86107382698,558.525564190122,612.34246489618,627.493407530731,701.314350654049,751.291631563511,861.020578925365,827.123434054026,776.25916558267,627.375019736476,517.62034289189,436.014447006065,432.593877337389,459.770550489631,487.238094228684,502.858251192346,523.741050936344,564.009939574775,568.266110559391,570.691807726555,584.619046707745,553.546732097239,499.9604317338,608.937233151717,641.487671676521,650.767592176201,718.182054601153,816.2249147307,854.985564458847,983.04959884606,1242.33732775998,1330.61546386029,1348.4217566801,1277.32081571824,1222.32115873309,1088.65330549822,1121.29453709072,1337.59699744028,1570.23428931291,1664.50773321607,1525.50261878954,1311.56880696771,1097.85739438792,1000.56653324644,986.044222553722,941.518229733859,1121.62754490749,1182.72866778866
0,0,0,0,0,0,0,0,0,0,0,0,0,0,0,0,0,0,0,0,0,0,0,0,0,0,0,0,0,0,0,0,0,0,0,0,0,0,0,0,0,0,0,0,0,0,0,0,0,0,0,0,0,0,0,0,0,0,0,0,0,0,0,0,0,0,0,0,0,0.134276907483444,3.5021831710418,6.35254244902661,8.25557166714181,9.9013175022859,10.9113038960529,13.0263183483458,15.5585075684056,16.2618900708888,18.6943896480273,20.3615573087751,22.3353403910926,23.4918780673797,22.7037990885062,23.1404297855005,24.4975573882687,24.3379451808379,22.9536336990478,20.4266946071638,19.3006477947115,19.0974216201466,18.6742116682464,18.0205135330265,17.9652582216463,19.3721583831616,20.9299372422904,23.9534681991674,27.5432509152338,30.7403821387212,36.11726205243,42.3999064601053,49.8487681574374,53.8244937015881,48.6356635422942,49.0185736790622,47.7746087745347,49.2003747276531,44.249682923345,37.2980068290356,36.7353424072381,35.5765838220328,128.935866724044,216.504064091628,268.386037496699,272.10058311486,299.573190547117,268.29751614625,198.089461979848,130.532925428965,188.719338421218,189.704615199045,179.151695164428,189.939732620181,209.255142991539,230.633704931133,237.052181247519,246.316142474193,254.286182681904,272.59363033399,304.267438132097,326.107337294549,333.959984510646,358.80394365951,353.146421004784,358.956443530773,394.181967305915,436.276289839598,479.281829184123,479.685438438005,506.124932165119,503.749605717382,490.690441785201,519.502424371502,572.850517957498,603.203278292049,582.067465455934,545.507537398615,543.014362356363,565.349961888759,539.43159828876,504.204113160496,517.937956187212,534.88550658359,542.601556094659,475.145280515064,440.708178667226,410.005496678258,370.982193516506,305.291075027704,274.238995993333,268.042641305338,257.840326033459,256.155814184269,254.043175379824,257.001019007,256.683977945231,254.31580005079,252.230367232589,251.060319841014,247.968922098114,243.310646160189,239.339333733603,235.860705605873,233.763483589888,233.606232909618,232.613986043714,234.369080946709,237.878734433031,242.349009598062,244.59481877936,243.644840029951,242.174903940314,243.372182496131,243.383069963346,243.147017618656,242.947625379736,242.173635782341,242.808919498626,242.180397605942,241.963692572802,240.662109135621,243.974012305458,246.256891631349,246.213397018569,248.509500329823,250.00537051065,247.806450592309,243.210483133369,246.501341332108,241.606306255905,251.721936690158,308.795738456372,353.179735589097,367.617550793626,449.166235302905,515.604042896532,607.17897217736,645.777588691335,709.127782588135,780.638238604232,881.391522536269,865.835284060922,723.945663873317,615.384169154934,480.042056414856,404.264370621116,419.939438614169,443.33913593513,463.217117991887,491.842447946036,509.600969780224,508.15857559723,496.534814090225,529.141709476116,567.575615622516,491.110684508417,496.632479344356,544.224464647257,551.631039534132,589.36717869441,658.78218778995,783.447719565031,951.326220583656,1035.70731875989,1146.04115325848,1294.08179105159,1297.55461240225,1142.72670460934,1006.74169831081,1083.32594172486,1246.37034465277,1439.55086685136,1441.11824414286,1352.08285798493,1280.9422520373,1183.9685135038,1060.07137395318,883.133171543142,882.665854629433,1014.58667158119,1039.56324892784
0,0,0,0,0,0,0,0,0,0,0,0,0,0,0,0,0,0,0,0,0,0,0,0,0,0,0,0,0,0,0,0,0,0,0,0,0,0,0,0,0,0,0,0,0,0,0,0,0,0,0,0,0,0,0,0,0,0,0,0,0,0,0,0,0,0,0,0,0.00242233600200713,0,0.644127162494107,5.68589681070017,7.8964260524134,8.59601697732261,10.0605289321341,11.6395332002075,13.2578754479191,14.5758298519221,17.6748923165677,18.789376951242,19.524897814561,21.2010244250629,20.2705289287649,21.2134826474966,21.4345767810665,21.3408639891785,21.7893683873739,20.8492243650092,18.4714442461477,18.2711438989104,17.2160840871397,17.1638867825594,17.3923747935364,18.369536449077,20.0268891971228,22.7236136720018,24.5579669251414,28.2334456203481,29.7285295912409,35.229897169431,43.3279208082895,45.5829605103493,42.9078819240068,40.3764550930343,42.37163392678,43.5910000693613,39.8950054368153,37.6395116290815,45.8158469716049,44.0728583294475,88.8823282254664,139.765970919261,209.913033386742,252.101283076938,221.649464531469,174.778159845465,130.553484493324,97.9735202059257,126.954735614349,184.350082645357,178.710907409769,183.391399119775,197.353623342099,215.787495023762,233.091172963661,242.158711803466,250.008935145491,263.724608279559,282.590264123047,297.329835315028,312.568624183437,317.432477658799,328.464611412307,357.999175899008,368.818410930133,394.793658258917,429.260564959186,473.100459518188,532.783402762102,594.20568496081,635.736586449662,647.891573889551,628.785048711416,585.667773736772,575.753970538293,517.844493626589,484.15452681487,500.455204231345,512.281583289706,469.122373162091,486.411620625228,501.901903367888,418.64992780998,426.435659546438,445.378322097237,422.703821661354,354.182475042668,294.119727061423,267.599265801948,261.162729040574,255.229384666818,253.197119967445,252.394830414114,253.438977086318,252.134287909709,250.345168401924,248.355597331197,246.885758784534,243.527516796851,240.248848663383,236.389452928459,233.164035520437,231.298842396079,230.667722755827,229.682318017025,231.973622810184,235.964219828956,239.876609082646,241.081772471161,238.489417264213,237.310122913737,238.556472040603,239.776259414124,239.47932801263,239.11640145033,237.511594823608,238.170552792277,237.674142245445,236.777564412757,235.978434184778,238.349303624526,240.094539070391,240.412944106966,242.188770551847,242.639335915702,242.374711837347,241.220450572874,239.613562342859,235.752035483728,231.052128713397,238.657829675409,268.132454248304,292.728168473685,348.539417533445,428.910557339674,495.107340381116,490.195546536816,545.350963955178,617.723926607159,771.550434027723,828.540153467864,719.396212216234,568.630460650216,482.524583006919,423.289320641802,386.7889812084,407.195850279988,423.678283214662,447.190856573123,464.156996388035,465.558172466781,452.8778672407,450.898908873936,480.445788692259,487.134560253335,427.471565341497,465.528737577248,496.448613741976,557.054527434013,588.180813518821,672.313685188181,810.024431407951,889.640094573095,949.298360460386,1085.98094856531,1263.95578628636,1165.43069443165,973.975541614551,947.480637008721,1132.89078608086,1438.83805965061,1461.6994581207,1194.41210921884,1083.01350181395,1010.03554662187,1000.46903948893,867.930509223597,752.908260642256,838.52254269072,947.250398385536
0,0,0,0,0,0,0,0,0,0,0,0,0,0,0,0,0,0,0,0,0,0,0,0,0,0,0,0,0,0,0,0,0,0,0,0,0,0,0,0,0,0,0,0,0,0,0,0,0,0,0,0,0,0,0,0,0,0,0,0,0,0,0,0,0,0,0,0,2.71280835317419e-05,0,0.289550840860595,5.27854081995147,7.20951722800885,6.72083577209566,7.7821142084538,9.94098001835336,10.7132570331085,12.8901975576507,15.2887887487891,16.9710616631914,19.0151870541698,19.9841303692924,19.5432259617831,21.1460661848672,20.2953864790419,19.8585327553575,20.4180789890125,21.4925797762517,19.0149232641095,17.1450647828752,16.3664758852767,15.9374324648266,15.8254351069055,17.3253314452965,19.5194676204643,22.3267890896299,23.1200470467814,24.0444429512787,26.1365883688741,28.8078772157507,31.9478675455237,36.162371035241,38.8809721181926,38.3620148365634,40.037833344905,40.5670168812312,36.374814377337,33.2680503351207,58.9254039114869,59.1266120148385,57.6579079105742,99.8486342969042,138.076646619437,202.078173343298,210.732660777131,149.076200215753,164.103575402952,156.223215002079,138.041962749029,186.633812247612,241.640830046378,239.549096233066,233.03365074399,231.991725430288,231.596234000113,238.621512320365,249.669849594644,261.927602935007,271.291084545482,280.918036976572,301.097377719582,337.245141875263,382.544054286907,451.350538754101,461.595182760872,468.707870455168,521.46125723845,558.691400459377,611.253690986729,641.530807927117,635.200368727425,616.914283273937,561.196367544172,508.105861745672,528.529182449671,539.973362768655,496.505013687158,446.725995586843,474.942958684155,456.755499739072,426.479381036657,415.945023610171,364.183345056571,384.562931585668,337.937417229991,334.025961264896,325.723293625319,308.59842875445,272.875328930626,258.072481921398,252.638356094744,250.559510922879,249.392687521332,249.436073389386,248.156282238866,246.293205443683,244.189387762293,242.79621203144,239.333465281133,236.800313071786,233.680180745616,231.114209553795,229.07129137302,228.523992546112,228.249391035439,229.904422776922,233.349036788025,236.136690997862,237.028682126375,235.07291457954,233.710872976279,235.444414368105,236.080615137966,236.487599973161,235.967481645928,234.958287740115,234.738965410826,233.945385059388,232.316011409102,230.715779852187,233.090058663942,234.444243066913,234.45418062853,236.40705814241,235.970724733372,235.564677850443,234.986793498749,233.313493938452,230.221363996181,226.525023641363,219.810118374563,222.73520792112,243.236925419316,275.52099972763,339.226114912022,404.947095316395,414.226772944904,461.020850504991,540.111970533325,601.206777371431,757.350768474239,777.659955110302,632.068251980409,527.222970443315,429.176704238252,369.295285110924,376.968193753899,388.947814114013,403.949346083064,424.398085991635,424.69009870279,415.437648724508,403.152425239501,392.913987871874,444.802511472267,421.196562751198,416.541055307661,448.409889845765,467.614019381835,502.71118420573,551.434044931386,635.49699435409,716.435524268388,776.810766750123,1003.41421808805,1015.04659619518,928.41497865217,862.173981118327,915.824959007351,1080.04744790896,1341.15910236008,1282.36935709981,1256.61736610695,1098.24139973316,928.437074239859,826.665216967185,744.756906555568,661.592335177953,878.883028097399,1053.14391015107
0,0,0,0,0,0,0,0,0,0,0,0,0,0,0,0,0,0,0,0,0,0,0,0,0,0,0,0,0,0,0,0,0,0,0,0,0,0,0,0,0,0,0,0,0,0,0,0,0,0,0,0,0,0,0,0,0,0,0,0,0,0,0,0,0,0,0,0,0,0,0,3.21240031847666,7.42121736014986,5.84223893094258,6.78462933065209,8.88784720689287,10.2700828168498,11.7613620508506,13.1190461126213,15.4308946002376,18.1917969370133,19.1297069388653,18.1546636309436,18.8091510921463,18.7027271725015,18.5392823832646,18.6318237554411,19.4278972469734,17.5736554540302,16.1908199107231,15.3640153477025,14.6487364263075,15.0989153154531,16.1601349740087,17.5799720164996,18.800373384615,19.8660772358953,21.3857062737653,23.9169921472669,26.6657348161988,29.8058207739586,32.9803750971364,34.7073681851527,36.728268386905,38.8269836089906,38.22909355928,37.7940664375498,48.7517043112806,32.8533596443086,55.2612497304261,103.791321713645,128.595820054566,160.172558182264,261.576557584875,281.359240582159,190.267136605864,196.682645853208,204.168111520696,180.180890426038,145.174240295926,185.680461345372,247.952585384091,256.217106820155,249.36588536507,252.306401322127,250.997014083395,249.610765982119,258.231680170106,271.166184150508,283.738602079781,335.526562722699,397.476700067097,413.421821193094,432.492211602337,458.809955260693,480.972383735024,558.437251738832,594.104243891584,605.563697593033,624.246437397524,635.808521662326,569.115513816546,493.638520791047,474.269221612325,466.686073920231,475.041859537457,464.415027687793,402.626156596892,373.028119027279,417.855359335736,378.043821117829,382.43070397062,382.078436542604,368.568268354616,410.874249652447,329.225383257908,302.90015285647,312.72967834706,296.023283943612,270.36061720532,250.687427595432,248.489809978114,247.780853680786,246.637018332533,244.954826093476,243.007508492855,241.162113629306,239.518833552802,236.873399599719,234.461782312697,231.914904718926,229.676328644863,227.821330078275,227.075524209457,227.540728186137,228.573861858748,230.539586463607,232.421859900405,233.647210229643,231.759934104132,231.081953936971,232.033227632046,233.496005382877,233.956475357715,232.490197588084,231.24277237288,230.493631620276,229.728932945808,228.829171968101,225.883514520679,228.140408078008,229.539494493864,228.559415572929,230.033043266911,229.276026870866,229.406482824132,228.829890133202,226.935201099682,225.396505259598,218.222153829552,214.017982501377,210.426432768383,209.866573162261,211.584080943515,247.915591675916,311.592074918093,353.634845151911,411.315454707993,447.663624615428,548.024488726012,747.654560408734,806.270151014253,745.656199691141,592.298531415852,506.509315963612,430.040748722748,350.760983810327,356.157023949172,395.565061134433,412.248176492905,391.285669914129,386.653380945204,379.969432694459,371.622245784098,394.908793543425,387.725176164756,376.408542183227,407.011215702162,435.881187129205,467.821271919855,500.276312072304,539.386044598726,552.754861048295,678.521307665233,816.659332911625,723.349823278356,692.564226718614,849.985673387501,1018.0881946682,1191.79276174598,1270.90729670587,1183.44438139293,1081.65357536419,1175.9008769777,1137.13007866997,926.612044994438,687.837231234956,655.541039827534,898.53407215724,1145.58765041469
0,0,0,0,0,0,0,0,0,0,0,0,0,0,0,0,0,0,0,0,0,0,0,0,0,0,0,0,0,0,0,0,0,0,0,0,0,0,0,0,0,0,0,0,0,0,0,0,0,0,0,0,0,0,0,0,0,0,0,0,0,0,0,0,0,0,0,0,0,0.00102925066190439,0,1.58101687176695,7.09151355293206,6.2380057365067,5.58103984204989,7.995344364921,9.80311885401219,11.1597466426134,13.019589145931,15.5721775988474,17.2280524314347,17.7586802970134,16.9490355258636,17.5378286166612,17.1025494924354,16.7702089702954,16.7141778318578,15.7633949268528,15.6442921027636,15.4606841689888,14.1423962971499,13.5466277041405,14.1542438941545,14.9440125339601,16.5425748530886,16.2257270897368,17.4002971427072,18.6746339444707,20.8132833911043,23.923337340105,27.5341929095528,30.0692005093779,31.3995436367929,33.0776692592909,37.1064166440868,36.4608088619744,32.5183257859309,42.0982408770339,92.7687178694753,90.2464373441112,114.764374790428,246.924015913933,260.28681367183,264.70137034089,311.987200525448,266.110177371374,232.454675374181,209.187806698327,209.240546096086,188.891563138673,188.267950402697,223.992953534484,240.775243624092,253.151499002033,243.408583649918,246.82152857438,250.441700109781,253.023314049067,271.953679629908,304.130362718245,393.099998733191,430.247738473271,387.020163009031,386.95451784433,420.967035680842,443.562014983799,460.381069048052,435.599770268869,440.390965792101,463.235174200703,519.771504822,573.638355797286,480.908323642684,418.73479835298,463.74284655063,455.852407625913,521.467027328169,471.045240227113,371.700294565081,428.490548899527,470.056467405615,490.399329719768,476.216536343709,402.386139869437,387.36052803681,315.378214233528,276.422791930353,279.520084371414,272.472933966794,262.262566296334,251.832517473859,249.062206540359,246.954880787585,244.789896319659,242.985856194255,240.905044092229,239.304189376302,236.809624803948,234.638286785436,232.732154169413,229.722241808087,227.810947367319,226.763835322162,226.1676460178,225.487889281881,225.995922377777,226.848430549547,228.298902248752,229.407435870168,228.493994474786,227.170642340424,228.46580954625,229.823318496769,229.462391134117,228.261984475432,227.365693714176,226.574297327698,225.208373662756,224.596763540045,221.249911768538,223.983292912546,224.73391737907,224.327683631532,223.997876573206,222.933960295158,223.315928969637,222.623342804386,218.706907628925,219.329554641288,212.8881276699,209.71450956892,204.906501702034,198.241592469501,193.962810634636,213.796670622868,249.583689785928,288.912279354847,338.607888033027,411.192230814218,495.04212370849,606.040965208032,606.663091767738,699.316241687452,686.311180384081,591.482811196747,432.149665904827,332.487050275409,332.940936609772,394.766686306276,454.092678647947,416.637267142683,372.516761053599,360.657932193886,359.230055627224,347.227424833675,327.869716986873,360.841274421692,386.836692909152,411.010258099432,436.399923025366,466.334451318315,487.865956257038,488.093759911261,548.663873495741,596.398638780074,531.951799883056,737.394263446137,875.917237653094,1034.23882646569,1046.84143779728,1124.95122803679,1076.88396329388,929.335463809829,1014.28159261111,1096.85636478305,908.303787767113,700.408215432372,610.177450167344,844.751495499821,1089.4579937117
0,0,0,0,0,0,0,0,0,0,0,0,0,0,0,0,0,0,0,0,0,0,0,0,0,0,0,0,0,0,0,0,0,0,0,0,0,0,0,0,0,0,0,0,0,0,0,0,0,0,0,0,0,0,0,0,0,0,0,0,0,0,0,0,0,0,0,0,0,4.86653641266624e-07,0,0.27328411974307,6.30185725171438,5.97223657123926,4.87133767795558,7.56669220239524,9.94327129147273,11.2563023717551,12.066212135769,14.009957869614,15.132980219183,15.7530987233259,15.6467692265388,16.3867383392776,16.6520247154655,16.1556315321143,15.594997282902,15.2194027063056,13.9356038349216,13.8210020152016,13.4447150528344,12.6039605403119,12.2837256893999,13.674156029716,14.1241838371026,13.7958432650477,14.1834798074432,15.7562173664322,18.1806838451516,21.1594168161773,23.9899385990892,26.3638396011812,28.6330126505681,30.0708036202673,29.8127346079596,30.9662372831047,35.6389020465196,157.860084965153,325.271380116349,332.798985310502,263.294473124023,299.483205683372,267.170137572506,224.610093155283,229.396881693348,227.505804245809,211.164013551264,210.091231704878,214.291071795618,200.338885901386,191.498379241971,208.717502679384,226.965140371781,242.078242952724,247.92265617942,249.558240398129,247.891656308751,255.800158081257,273.153063718798,293.536569932271,356.802384080501,423.032324234472,376.260178847881,372.241843752964,404.438837036466,405.524021480221,407.787351268394,395.096818766518,384.69121001051,389.827469717911,426.30100293622,471.762144213674,444.89621595493,402.453225319564,492.58990249192,473.628962126868,499.606811035258,474.6452114316,362.648173074307,429.434156521074,459.114602508008,438.856025341412,432.878467870749,375.909519882031,348.925637715046,325.239966963547,272.767779937656,263.609032783016,259.508082368637,255.879377994916,253.890056721004,251.29841830611,247.785481645951,246.919071839387,244.423133316051,242.07629056695,238.723711519613,235.638867426864,233.44664170084,231.363583424452,228.875316295085,227.547246245143,225.908048384594,224.852250724609,224.260814588066,223.250324412014,223.705634875277,223.951891902973,225.67292853116,226.478351410121,225.385096460167,225.468337111817,226.063198982104,225.516195274089,224.296495845815,223.417672398298,223.133053073295,222.1890840191,221.211644734703,217.37368383479,219.08190258164,220.082842625443,219.162517275738,218.590463730708,217.86390012572,216.871579479916,215.734532269951,215.01734083931,213.878033411575,210.445710167895,205.931101976821,199.325979709729,193.350677941007,189.451707724163,202.030901224592,230.652464075751,247.965476916196,271.952876688853,319.386294476035,368.28871291193,445.249080747718,497.451776387205,644.188104681535,661.227276293145,501.267535112757,410.934510919489,345.901457370309,312.313263929395,380.254010230641,485.209412019662,473.269039081102,383.339691323868,356.766211645333,354.11515114782,329.728046827922,326.408898590871,358.272567892304,367.575350983251,384.205539907682,405.506486872314,428.039527284623,441.148850623733,439.190794262626,442.630184970286,430.926826534567,481.221515830711,700.631229834752,804.412572369867,932.930776985573,844.061488191911,1000.66674342278,1092.39856082628,958.772706689884,833.970362512233,980.85520407584,959.914630284106,738.334767185233,556.583562900512,760.545694001438,1017.2284158639
0,0,0,0,0,0,0,0,0,0,0,0,0,0,0,0,0,0,0,0,0,0,0,0,0,0,0,0,0,0,0,0,0,0,0,0,0,0,0,0,0,0,0,0,0,0,0,0,0,0,0,0,0,0,0,0,0,0,0,0,0,0,0,0,0,0,0,0,0,0,0.000559985285251731,0,3.93934963737218,6.13567918463278,4.82681073316222,6.80741795934742,9.15835208472921,9.59693272264108,10.1491482209012,11.4052038120095,12.7837174220769,13.3467464164849,13.7480627238683,15.6596136983397,16.3287550125839,14.3061726923474,14.9249896304348,14.6406448560285,13.7998459595571,12.7668509019493,12.6984430817077,11.5494381612724,10.8122492800844,11.5519319346242,11.8982539277687,11.6326099294052,12.3838975317499,13.9009895405066,16.560937520046,18.7693791050202,20.7798765114415,24.3731172671808,25.1874176572511,35.1396335155852,68.8058809110135,31.6867812704617,34.8011788627897,154.552279023997,382.324400975298,480.158064752938,393.166587361077,378.390034517853,286.607543573909,209.575551388172,206.100546365745,202.784322772655,199.698757320521,201.826007952613,204.051798195957,198.092419910726,190.250635950941,196.259408144561,206.547170686386,232.455294712408,256.711622443902,242.756223274965,245.605201217087,259.3130349184,275.958017077599,310.909560512312,340.430820527011,420.789236392947,370.807700767752,385.161029838037,422.29832565341,426.947055564516,386.298810220406,369.745455930014,392.038949188184,361.571796530991,367.21350160516,376.461039672161,402.777402811481,394.030161194035,438.494161539332,427.46699168391,453.49771550735,439.511253853858,360.364426087514,380.954978993918,391.519799338416,385.379723195663,392.108122253835,404.184792914404,389.471455656368,333.80296937359,278.41033473498,262.472483997885,259.639696098037,257.409924765463,256.196865913973,253.281803675358,251.288810341953,249.750157378119,249.498291750809,245.570973077832,240.843956259044,238.362342051939,233.929193111147,232.093934214652,229.388991478925,227.995259431648,226.173968319967,224.857064527893,222.873311470882,221.744523754922,220.561999649649,220.998466550725,222.580682357045,221.852862622472,221.076426154467,221.914504211943,222.467551067421,221.800548198066,219.996115545532,219.476152058426,219.279077270153,218.317305015914,218.038664651557,215.361119882333,214.296940341784,215.561970389835,215.457286282629,214.100677079986,213.053398259469,211.257506512641,209.856101623331,208.864650741573,207.69842828621,203.831845331052,199.086812372418,194.503071585169,188.262353608135,183.424501459652,188.365236209079,206.719804275548,222.462774757853,233.08103627133,237.762796519902,277.047204318512,328.84557497845,425.530514322429,555.886061939013,673.695734338014,565.455709658605,461.122120462086,359.98380809766,297.902606090406,352.871449732534,434.887580233396,518.604202794676,426.830678787421,385.255511387915,371.285316754863,326.778107969314,329.421940322129,344.757602585113,348.641833280617,360.062380398736,374.28463827729,387.692862559798,398.167260660129,400.860775932479,397.10490009475,383.339727008798,378.353123110029,466.915503582618,586.92032304745,665.86063992812,737.703619902155,873.215921612117,897.610121170774,942.836772081503,746.875398939714,872.13789651663,886.117934297574,651.287821128336,478.488310122025,743.446820184938,916.916670996447
0,0,0,0,0,0,0,0,0,0,0,0,0,0,0,0,0,0,0,0,0,0,0,0,0,0,0,0,0,0,0,0,0,0,0,0,0,0,0,0,0,0,0,0,0,0,0,0,0,0,0,0,0,0,0,0,0,0,0,0,0,0,0,0,0,0,0,0,0,0,0.000434052909374185,0,1.2717510312329,7.29539804126749,5.65766554869755,6.01222005380944,7.6848824098146,8.27253876605672,9.04198431879495,10.4875934242149,11.861130074607,12.0767567276682,13.2908580526074,14.8838611530913,14.3782126587856,13.6601322747149,13.5281843589893,13.0948894927358,12.3805268731342,11.777620560766,11.8032357802463,10.4095871276056,9.38612180868311,9.63426619771497,10.459259070514,10.9873581376909,10.7007486215485,12.1842703205076,14.7020623573098,16.8316067141201,18.8600256853369,20.5278852143429,25.0761023449269,31.0883330364762,58.6905402448165,62.1398818324686,66.3175826610354,93.2029591900674,242.949611234875,341.245916018879,374.822489293736,335.161504048205,258.308815094268,211.183115434593,201.888222270462,200.179050907245,197.795325945499,198.841702716967,203.150114457838,202.074747954841,201.956861986669,204.429416789297,209.9357699061,217.187481085052,228.313400097342,227.626818135257,240.08512619285,251.965894173099,261.856448032622,294.801559738892,343.631662709377,424.507919022675,355.499863046847,367.660637016283,393.230724140387,447.927286779897,416.511443435464,347.800218261751,368.459108321518,358.418191965133,333.437347204002,346.921561970966,375.888220387603,381.418170685142,448.652983090663,452.639265514852,418.108747613662,419.936542702116,320.655442789804,339.503409991444,350.47421761533,343.52802188264,358.197530488511,378.476005926174,402.250305669066,345.686358719112,278.330647340941,264.622170173943,265.838916983647,265.744825782425,260.078323005765,257.284641339565,258.030548419443,255.5532284567,255.271826484401,254.553372950002,260.655043511948,255.294585189842,240.432380716059,236.621551128145,233.923870261597,230.963597234086,230.057474481859,227.875537677756,225.71902597403,223.395086928946,219.622086624665,217.735073113981,217.968431293245,215.965723204726,215.856515558692,216.874332816913,218.529170570125,217.529865391981,215.708579992394,214.959907491704,214.782024476748,214.32719561554,214.94516918984,213.8828372145,210.183267810252,211.359260344469,211.54362255577,210.020886533797,208.625526302768,206.57871693061,204.429507184517,202.304477833041,200.688638752045,197.896599719731,193.73877426813,189.356418771125,184.95619076763,180.657371201533,177.877160500248,189.192860850235,199.649282849407,204.682111168691,210.552134221224,229.066173428958,269.722054428804,361.677573290613,436.180325672879,552.871608218847,505.501873725412,383.763418760075,302.767689346433,281.721309035059,343.457608207846,454.643764046465,471.181182218722,422.838883533868,443.666540632992,464.830315629174,395.449717990488,319.128853515744,329.622874605188,332.068228309641,341.562093499768,346.043378775555,353.474304967631,368.6796224702,374.053420255518,368.794766867905,357.484191948322,333.186909755662,348.445963467635,424.844045720281,472.910721869659,608.908436250093,673.437500158805,724.060790753731,795.332866975384,647.498844863017,723.637555618134,688.572306430387,509.053603719087,450.466629410672,720.763727885476,695.035008832631
0,0,0,0,0,0,0,0,0,0,0,0,0,0,0,0,0,0,0,0,0,0,0,0,0,0,0,0,0,0,0,0,0,0,0,0,0,0,0,0,0,0,0,0,0,0,0,0,0,0,0,0,0,0,0,0,0,0,0,0,0,0,0,0,0,0,0,0,0,0,0,0,0,6.77301638439574,6.30602937875981,5.23640232618103,6.93213430243376,7.88612446273941,9.07775275941164,10.4805848596524,10.9720546030017,12.0056538617229,12.1781134374605,13.3695076098207,13.0696230661624,13.3186237795522,11.6672146526592,12.0007490563041,11.1675420260215,10.5770250557525,11.1774652085759,9.77640954069171,9.67833221519348,9.23882246342428,9.16591090398198,9.53840922828092,9.44275126892482,11.1703552017162,13.1681583541973,16.0270422629134,20.0240552082914,41.4809370175659,30.7625437643573,48.6875387409328,78.2215562166773,148.961129460379,164.187131614567,195.264873049649,261.973938165375,264.766433565703,265.384936618059,283.308756485394,260.382950770125,212.201569380644,210.265440934367,210.896302980659,220.00023791635,219.465472279432,218.358124033668,222.816570305164,224.482348228264,220.405899666215,229.593721028874,224.781508031311,222.381991828202,232.977855914981,241.838843232267,249.951485946241,255.287243983086,265.994105160937,320.476350880904,393.319964204496,361.077634014025,376.510841219178,374.032651382484,447.657261674669,415.468703091124,335.065668074909,345.07417643697,368.38927489992,324.793666535351,323.486424679487,362.51831467395,370.591905931005,422.717935010632,478.419114660722,402.893989517404,421.903431912733,358.159074268468,310.406895192033,327.008665881372,376.776634766721,406.078042460147,406.083992522976,394.286520654212,341.442530917914,297.005696555692,275.151820348333,269.435304907653,270.51441587681,263.711164439422,261.212912967236,266.67443239596,268.81996728482,262.173753502513,262.334796318636,290.645671678964,273.22058784092,254.136884127386,245.309820740216,241.847789680958,237.92447397993,237.317398399739,234.654985338465,232.814348238632,229.981484805176,225.307744889047,220.817876188926,218.286717136911,216.730316955047,213.648781099863,212.26925493897,212.875403644238,214.448211078186,212.209458147379,211.078303363846,210.603090466569,210.776584680533,211.221120266665,210.71702439837,207.198163790109,207.96219760157,207.197437025714,205.985009664382,203.996375691383,202.632990552171,199.551194259018,197.140374491371,195.492992687841,191.940730668374,188.358056971188,184.042252445174,180.181870667324,175.558601819225,172.803214200232,172.86929861354,177.596146954565,181.70701377714,189.361267677759,206.31885384496,222.487176064887,265.140156403499,314.036947340836,405.442470641359,387.158583983715,355.033543200117,301.561631317765,265.131048357261,345.762966773226,443.89981078044,421.008282902016,372.522331366255,463.558803371816,448.667086408727,362.340358365073,299.847184369459,315.96287697074,317.410973951782,332.604565963501,332.316137317819,334.743111101714,348.244827188738,350.240289914682,344.965637388957,334.15981185848,315.571900961207,309.186872641861,366.702249033801,395.958783854315,444.509549863428,497.08361035117,496.699468319628,552.385142544084,482.205484497548,504.734521338033,463.91183432016,383.531962081784,340.684690813018,514.741964687751,514.941592501048
0,0,0,0,0,0,0,0,0,0,0,0,0,0,0,0,0,0,0,0,0,0,0,0,0,0,0,0,0,0,0,0,0,0,0,0,0,0,0,0,0,0,0,0,0,0,0,0,0,0,0,0,0,0,0,0,0,0,0,0,0,0,0,0,0,0,0,0,0,0,0,0.00169510190751366,0,2.24179089178691,5.00771093614032,4.41169282189682,4.72113073703993,6.46489858035558,8.06181115409038,9.54498807358395,9.29989489682214,10.4693623371252,10.8355253279947,11.8969069644738,12.5051385048008,12.6639457210424,11.8591250164737,12.2435032228426,11.1722904076622,9.53380361243521,10.1178945500749,10.5005417245892,10.2691442882193,9.5947423598769,7.69747370713337,8.32493118484036,9.21245182921512,10.1982565375511,11.7153690187865,14.3598649833576,15.8996371440189,41.6277228624856,57.1118252332199,97.3035308053281,157.501408306864,278.013489519532,328.022062107135,291.608240438371,280.529622098276,258.849855106045,249.887734289228,241.526756941672,239.550218855223,217.642104376703,227.471686071103,241.694093070303,255.562241724119,254.743812877719,255.360655563281,261.146175376344,265.653280713928,274.173991119822,279.774158404159,253.290964914725,246.369427853308,258.463750499084,255.775244561723,296.526530008319,297.830629503357,266.03191345674,280.373006535312,313.69954483989,326.626928227643,383.972242926002,374.48828262691,455.075458257862,418.36315604363,339.144547159672,391.353182721719,409.083717732701,329.963937809538,301.586309219693,324.686033725971,353.175389139258,379.477598438047,434.042370913528,391.483567166887,433.518794787647,420.688125367671,293.214486378799,320.403651165355,370.235059009681,403.327360093894,394.805093521621,354.942214042618,329.666185479686,311.866998012604,292.394081511691,270.471666941085,269.212100769918,268.200384755072,265.619451065724,270.439270202394,272.292550797152,269.182400255935,266.628948000505,286.347430745101,285.207435935679,257.622809820524,258.465774853274,249.144926850313,244.967148046193,244.580000994803,241.202404385501,241.643566592468,237.569027738661,232.22772700064,227.938431918482,221.984630953627,220.075250333499,216.100936305688,210.267325402246,210.45398338714,212.856575378481,210.229711730502,209.251993387266,208.426476366238,207.754662352615,208.149111312952,207.883303119066,204.998580213281,204.809972504729,203.915699244306,202.585221473631,201.096485653779,198.678574683184,195.111297568004,191.909509017148,189.944520913442,187.306520312565,183.621114800892,179.524235473067,175.974310418024,171.087575381108,167.568211332104,164.09695405524,161.913274986171,164.502255733471,172.092521910466,182.985030730111,190.597910710714,208.316951593645,232.766015816297,284.349546117945,314.522380862124,292.491441166292,280.879424705382,256.455980879207,347.475799111042,378.832522868868,324.878943811612,322.253389076956,395.795971982101,357.391933781091,305.509043902367,277.215316817928,296.507491513978,304.229626131718,322.014810748027,328.371808621442,319.637559813335,324.195847031897,327.068821080641,325.362479071069,313.118405149699,296.307774551298,281.90377988208,321.479555265865,344.527117867142,356.450166851515,361.432094895202,359.74243644193,367.071218893377,338.969265313735,336.7824856004,319.745082253112,265.830520061058,285.940889543847,373.542321924638,425.457940090483
0,0,0,0,0,0,0,0,0,0,0,0,0,0,0,0,0,0,0,0,0,0,0,0,0,0,0,0,0,0,0,0,0,0,0,0,0,0,0,0,0,0,0,0,0,0,0,0,0,0,0,0,0,0,0,0,0,0,0,0,0,0,0,0,0,0,0,0,0,0,0,2.1538818119469e-05,0,0.44084718262709,4.3737736619686,4.23897373998268,4.17941472143256,5.45204518993512,7.48325883241808,9.06687109786886,8.42594155633383,9.3081954826911,9.92582476471119,10.4288637617452,12.3625646657245,11.6822613186805,11.0169917811055,11.8222697267619,11.2803233982199,9.26580176109232,9.19640020322586,10.3191593049969,8.99469826195916,8.26449523804903,7.74160157869509,8.23671709212655,8.39273738800074,8.96109457083757,16.3682124616774,16.0624546039546,14.4649119259155,47.6860576125122,78.5050166730794,186.743977700581,262.917146147351,275.210890476704,289.562240296575,327.024211454564,296.214098983975,310.652621327211,294.686422707387,266.651058377937,234.654650189603,238.155006165949,270.604051534118,270.154899813406,298.722414541054,336.997826245094,380.977216882352,378.751805477192,393.968455804648,392.245437584597,319.849298149299,309.70036942636,326.142719580293,310.008807044774,289.142650547991,305.958450681521,338.487308547352,299.973693981097,277.499823328244,285.023605028506,316.87317970022,357.073256869636,375.40675594436,429.632268651072,393.914037947462,344.821265272917,413.679182789467,367.378016253277,313.9644715344,292.662696045454,305.690923070262,360.681589559628,343.809445330828,377.958947192389,359.361632496615,398.548751063789,384.360178746273,300.652466925226,314.174222242825,335.769995899318,363.120310703783,377.88803920703,346.522611135743,325.068895252509,311.950540070908,300.066510190796,282.879220131064,274.427031027597,274.103605543967,275.065000203431,282.624916784413,280.99160472563,282.419472030575,276.799851510589,290.097735157192,293.846628408086,267.453574474714,271.438643051566,257.369868716478,254.997936884878,249.178027448409,245.79902630346,249.260297391978,245.565735689795,240.661648433658,236.010217811456,226.385182351494,219.692493257898,215.403552473204,210.134053596118,208.939372914019,209.862503441942,207.370127692244,206.391181647573,206.227574212268,205.4221951596,204.927817982785,205.123769481866,204.576922580064,203.531092651572,202.756841335817,200.270304316865,198.650129765115,196.04377833144,192.43493840164,188.280608996784,185.284677663939,182.748829901336,179.076071611158,175.481976919782,171.622523673358,168.127167108615,162.086227703075,158.09443855922,155.664403594071,153.93124029748,156.119545684041,160.447635942702,166.850116416576,176.633829823219,182.173758157653,195.169865873873,233.977015327761,254.264714961508,234.354530231563,264.182049563894,371.466911422561,360.13311934271,295.979839725712,376.427388594531,436.781902403091,398.572593250303,305.229470151716,268.46222578634,281.359981531939,292.533206336415,302.371867168751,309.981605845629,302.585909939535,300.678748070352,303.816553466045,305.022248341441,297.964147955122,281.210962299026,265.043404721735,271.90085458822,305.181148875584,321.480605969428,316.464653687597,307.413243304212,293.380572958452,265.220232093224,242.613657879496,245.797849999268,224.31450089546,271.07891649504,299.43076106874,313.889180082939
0,0,0,0,0,0,0,0,0,0,0,0,0,0,0,0,0,0,0,0,0,0,0,0,0,0,0,0,0,0,0,0,0,0,0,0,0,0,0,0,0,0,0,0,0,0,0,0,0,0,0,0,0,0,0,0,0,0,0,0,0,0,0,0,0,0,0,0,0,0,0,0,0.00309745040430611,0,2.30079850724226,3.56215404691997,3.01238007329677,4.3126914422834,7.40950730899157,8.33069460346079,7.11782651490477,8.60969696730188,9.42082393242547,9.92449664147404,10.4542633462701,10.5260277556863,10.7533886853895,10.1907641365844,10.8153985154428,8.89984167379569,7.93761733814346,9.09785643282788,8.62532044802084,7.52884256430777,6.7532199846675,7.21077701778986,7.06698535436239,6.56057276842676,38.6092898358552,51.9534737959085,15.7270499194632,33.9631778006447,62.0573495265928,165.381419577788,181.085254084787,165.416966133604,204.188289743635,279.867064783218,317.315228422311,331.563435533174,321.219834494773,290.200709372614,255.674939781179,233.703092565241,246.977562531958,269.260179012561,344.414327109894,413.929818684903,427.393026740997,439.347845963435,441.763326374975,406.448084534075,373.59782190115,376.014873280286,383.011258377315,399.209035019129,354.199070009823,353.523183347133,372.93916845256,339.408150643489,281.666287871772,282.128866030408,304.283540012194,338.779872312055,365.783644391593,402.868453136866,355.469638141312,327.689320220302,376.921284442909,373.07228867357,317.53963318941,284.896586133197,321.588243750383,369.33091656859,332.634774386336,346.445936125315,350.086337421689,378.758758194129,340.347106844323,277.950801327474,292.867484571385,316.094031443492,363.849583676236,376.118192930754,368.039868702898,338.013901671533,310.386988003253,293.837200698028,287.876612366326,280.205873849404,285.746289693995,307.150456401593,322.105752029389,296.732099696641,302.900128307022,292.30588908937,296.834479541633,315.086935615431,290.438157460513,293.780486328102,285.625554870387,274.239665613502,262.065333557598,254.204040714029,252.928273028285,247.90981222236,250.097622430363,244.934700727075,231.377264438127,223.066878615315,220.007847168793,215.01082823373,210.074851997288,208.158646017097,204.971656531107,204.007561476235,202.794454548229,201.932710284439,201.912686630218,201.94321250382,201.648738004982,200.643451043414,200.815983415591,198.518666073452,194.626146038403,193.656822765465,191.001892799312,187.554652372567,183.447385061059,179.303604884672,175.53160296488,171.718226961182,167.314180090107,164.60487284427,159.480563692071,153.508508785027,149.355241263789,149.09713225923,146.382540722586,145.83318464647,149.203511106466,156.786471398469,165.678212145044,176.159137181488,190.148913684231,207.124176924265,238.29754574114,293.257379034789,302.987060347019,279.55388911701,310.166933337002,448.163625256108,474.391756304876,423.979558555006,330.095249440116,263.005993076834,265.119722210618,282.205933671186,289.013571640489,288.949802218417,286.002468350824,280.967477514868,283.646094038102,285.718644859892,281.851803756107,269.824668581769,254.133330167182,245.62359090754,269.005098783744,282.754002295048,280.960708818452,272.423009395908,255.622351856236,231.537936918719,209.003133218514,202.929830581102,213.592181638047,294.57857813764,260.414655296458,241.547334443802
0,0,0,0,0,0,0,0,0,0,0,0,0,0,0,0,0,0,0,0,0,0,0,0,0,0,0,0,0,0,0,0,0,0,0,0,0,0,0,0,0,0,0,0,0,0,0,0,0,0,0,0,0,0,0,0,0,0,0,0,0,0,0,0,0,0,0,0,0,0,0,0,0.000258820383193626,0,0,4.00686054448045,4.27073155174456,4.27978549674154,6.94584810428954,7.6384420364648,6.60653428500424,8.1115339180143,8.71672787870438,8.72512613518699,8.6569242045593,9.44094578498255,8.65820357627118,7.98505753224477,8.51397835293397,6.94548126115735,6.49518188487127,6.73751832581287,6.85004329215172,6.42807725762395,5.8287284842602,6.09669653936445,7.42839091521882,8.691049611812,10.7448271723094,11.8173166555248,10.1013920558151,10.2096363034854,48.1326468771844,111.017678327486,121.489980173169,153.39313817,184.984482357242,208.546342450956,277.828772596308,293.595367889167,282.871930608894,261.378837017648,237.302895579314,236.030055029596,256.121067358015,307.05753069421,382.184775022148,403.269534627525,367.752769226444,369.663211823136,350.148409190169,327.419159783868,354.993827274636,389.688070537636,362.609460710292,369.828219743817,379.548692901598,373.585699299931,353.718273195456,310.121404917769,286.990999195108,282.401088280894,291.03385011155,312.935437171315,336.491560402292,342.796497467636,324.361356640665,307.851887735173,315.376517040216,342.35402490162,312.01615473021,284.584955076227,315.539235736385,349.333101867999,323.26698723805,313.584927319877,351.580845889382,391.282391575417,341.276306915928,280.172208249235,257.460212538699,304.099692724649,343.948773633311,356.470622571955,359.427241649647,342.735215638438,320.167712013072,296.849086124484,286.090963210486,285.308452003465,301.974161085374,321.781796126277,321.452492362009,301.410575357225,314.802139730399,311.289489084292,309.803883089746,320.57791717413,335.486465729402,324.844241274913,300.409920391927,294.970275496006,301.556194154506,274.633316206324,268.029240640768,261.073473608243,263.258398697702,261.093757336775,252.868255093631,234.110826736561,227.687418646719,220.448914793242,216.456382143824,214.289488533552,206.251015013965,203.5287320775,203.493348171533,202.298419758065,198.959845095334,199.510515696868,199.467314437579,196.764597843661,195.038444288164,196.332904779019,193.845144227699,190.082677262905,187.035884191049,185.37622559634,182.095267924788,177.721307014299,172.355469509234,167.636944900098,165.540780105434,161.687670557376,155.063867765527,148.844793773977,145.228387877762,145.095231162815,141.779154088497,140.488305973253,144.148111453039,152.225671331075,165.757576381808,181.706815513171,188.124939163731,196.21922438983,233.961217845051,243.411629547957,247.446664314591,301.003674028107,350.48175289773,403.040749774581,432.631921632952,421.82748985208,359.935914234309,267.667367789532,251.25525929927,276.460284167084,280.412815554691,277.403819407157,275.795029705648,269.781901894744,267.009373798073,267.361314238875,265.571237533254,257.595585958802,245.088580731741,236.494867992065,243.507214303136,250.379173976384,248.300887916666,244.024175211381,229.555711802574,208.792906621145,191.674633967011,181.319147181242,214.906912491345,240.639700750542,207.853527458745,201.30514254514
0,0,0,0,0,0,0,0,0,0,0,0,0,0,0,0,0,0,0,0,0,0,0,0,0,0,0,0,0,0,0,0,0,0,0,0,0,0,0,0,0,0,0,0,0,0,0,0,0,0,0,0,0,0,0,0,0,0,0,0,0,0,0,0,0,0,0,0,0,0,0,0,0,0.00153172377070774,0,1.73198698670115,5.6140795743527,4.71946062322484,5.31380604559816,6.37771677923108,6.60380959976975,7.91058605892531,7.23623519189748,6.71166630098948,6.68140535171196,6.93853791906592,6.39232858552322,6.48765639015815,5.95016218744788,6.8937627939063,6.17484873300043,5.77970848299907,6.59945094798548,6.17409056868018,5.33160442258841,5.66107326216862,7.06706097074767,6.32294183635358,6.2569436482899,4.85932570680699,5.83173576721733,9.74297261518516,62.711060042267,152.696501178973,194.376429043291,255.352175529264,278.080674522425,276.758818500897,288.368481772042,298.296242881124,288.087017256088,272.820512888858,254.07036409029,263.59938763414,309.369104331147,376.125967387432,443.034676752751,422.299476847524,343.907666460263,321.657419144245,312.577395649377,312.163348393622,370.159579599022,389.675877997594,339.560359162239,352.200972422582,360.857464040677,331.602972494384,332.472075085027,299.972519475726,280.105026394235,278.892683735663,282.336787072433,296.782685250668,302.76025556804,302.262815183647,302.881650738257,305.559504720437,302.48460081391,307.199909171461,296.795628624337,280.040085181321,289.708485984629,308.386705933028,305.76294477752,310.112712705304,356.646751908649,380.917172314833,370.075262285402,341.839730428842,254.111497629324,271.146863074132,294.029770721525,325.514136290791,342.527933743104,349.478806007629,334.864253103568,306.754232830504,298.919283009151,293.947642975496,302.647021186606,339.008120156942,324.753956094875,312.287416132399,332.743030076867,333.057755836035,341.089433699564,342.191151422663,366.154901304675,351.9587101206,312.348692363142,312.321950138762,292.116366741538,289.320760199112,321.709756620505,311.248435312427,291.564002846145,295.9636662196,283.871947469093,247.594518407294,257.565363587003,236.407955279249,224.696661769485,220.783551384462,213.377412392927,204.055791570784,201.122709383512,199.802872357383,196.657668758228,195.990581903787,196.366055462962,196.947759037553,192.092277255629,190.522479192465,190.666178339814,187.50826078438,184.316698186775,182.78449704555,180.126955884294,176.607202855807,172.709748042159,169.308202086698,161.257248914317,160.134779250977,157.88933631548,169.184977180004,203.1993518351,207.237419355359,172.165262836873,141.787898905635,139.7195368743,151.087843498181,162.517736366419,178.553470353869,183.943593476302,189.963049086657,201.476425593358,211.411776379878,248.602041086517,279.332082528237,299.663030553726,354.767140147515,403.625899880359,364.644914948535,339.401105554549,310.154205418792,253.498123855024,270.231482879133,270.611840702035,270.773089885379,265.811583398495,260.355999166086,253.099762373712,251.198561009234,249.55530035384,243.387907399095,234.211801752659,226.500328261957,222.368022193335,222.183667869258,219.204859847465,215.329119731598,203.891531203878,191.215908195174,178.923500934593,170.799080089676,169.413329878156,161.171616385025,172.335988257886,180.156597879877
0,0,0,0,0,0,0,0,0,0,0,0,0,0,0,0,0,0,0,0,0,0,0,0,0,0,0,0,0,0,0,0,0,0,0,0,0,0,0,0,0,0,0,0,0,0,0,0,0,0,0,0,0,0,0,0,0,0,0,0,0,0,0,0,0,0,0,0,0,0,0,0,0,0.000117743688537884,0,0,2.68105893161208,4.80477532326983,6.61901260414782,6.28594802179331,5.52461702158966,5.80232956048495,5.43553203995083,5.45633927142799,5.88891221911685,6.05931853780844,6.12582901819237,5.83714549300009,5.36729217409327,6.25074014600501,5.69346928433523,6.25622745517766,6.87197429030595,6.12577409420214,4.77228312483434,5.11197490379629,6.77992104956926,5.48460265228599,4.40116830588088,24.3927154934339,62.9465996347592,84.2723687507393,124.293205006815,135.226274893432,201.451474382952,228.96299539957,244.70536755712,249.947567681551,243.113957829302,259.440344027348,256.344459785857,278.199151177619,262.487504105704,294.581325050759,397.975333506607,449.268782587754,407.943262377792,367.979893112963,326.255609888158,312.929239705211,307.075153468407,303.892905558583,326.320164249776,316.804322391625,325.866386148347,350.520838991451,353.700345164044,308.682774718342,284.972740679766,281.527650276366,272.357870095162,270.408673597385,277.003897711461,283.080439713016,286.509630156899,292.526758877175,296.523850605368,289.232491790185,283.845308695124,277.429822575775,278.244064439748,274.639672040542,273.446643392434,280.859000649252,286.085756386605,338.257761840601,341.058953538414,316.192931679759,293.120347768701,282.754020516615,270.61126566777,303.601111527263,316.270258209713,327.15078641057,387.304857006844,386.041998464338,382.612636704996,333.77212562886,334.065889232282,312.931164954916,325.081000392351,359.081242937986,341.398593218318,342.185834022035,343.017947963604,353.506955216959,370.70232995461,361.911094823919,379.184141321287,365.489911824202,327.018666633974,341.43125644431,311.213588193611,300.947056362633,336.062613894071,354.196911263195,324.929376521108,323.748873243669,281.266118688467,262.181584959924,283.105151875561,275.945330454942,249.864060598149,243.439353426223,234.654883011611,222.891445788246,215.664653358803,207.909504033007,199.791485900603,195.29653533345,194.004355734063,193.278171659285,190.563755548063,186.457458689251,185.533682441441,184.674338207418,181.108365252483,179.262008808256,176.601177234425,173.044584717967,168.855359499559,167.051941751408,176.532638281622,185.148865506598,184.902378532372,214.7926063247,261.644168770301,222.651982289591,168.977767715211,141.80611737194,134.253156611696,146.96078654199,158.307223927998,169.772774815605,175.550295616018,179.352242718998,184.485512375578,204.756623549848,260.051724966476,277.874850891633,294.273222842259,289.904662539974,305.798892560417,312.390456658914,315.098260751524,301.478407353782,262.186677300349,266.987251563906,263.712646364369,268.070360545248,258.398457925472,252.568786660024,245.313634331948,239.309448647169,235.37166755447,230.17256682851,223.193113023438,217.320310056878,211.735547350843,203.944768214815,195.029071838642,186.97424356701,180.491978803886,172.528270125686,161.902385329014,160.124221823517,155.068501337625,149.049422970208,154.586760564036,165.669683511186
0,0,0,0,0,0,0,0,0,0,0,0,0,0,0,0,0,0,0,0,0,0,0,0,0,0,0,0,0,0,0,0,0,0,0,0,0,0,0,0,0,0,0,0,0,0,0,0,0,0,0,0,0,0,0,0,0,0,0,0,0,0,0,0,0,0,0,0,0,0,0,0,0,0,0.00144861699129036,0,0.0501367042618539,0.621976892027845,1.39175642633471,5.22136844712039,5.66584479860495,3.84797858775255,4.7420600337457,4.81577061763439,5.07502678958729,5.57171046740914,5.30323888881971,4.86216014038169,5.15125770237517,4.84879309784035,5.38334984187489,6.61782647361957,6.00138764198624,4.94728870659103,4.2946167993471,4.73744209793334,6.27117041881112,5.12647656578414,6.03716610381889,30.2417940351221,43.9673773342965,59.7576180113184,93.3858312283334,169.371350751277,203.463076555286,187.912049169456,257.539782663468,260.287694211709,189.894426314161,204.160408644243,179.428555730312,195.53933654323,238.27129013065,309.967047977024,355.644330115212,389.641176737,396.803555807329,378.640997414432,357.366386192654,343.731573221591,320.650948039882,329.758412574376,314.250719459053,300.452739530594,304.214034572158,313.785666460432,320.849770865316,297.58589391606,301.556408040283,312.120052899274,289.806344089246,267.48806562663,272.157737115956,274.251088165833,292.874979232515,340.319814341749,340.167085045674,337.436121894525,335.941319796188,315.965310682443,290.016543895886,267.752000198868,288.884488501603,283.549151910883,281.19571621499,300.97910467064,287.975966222858,269.413096661098,252.035903860254,235.370161876989,272.917194079263,338.10775452379,381.108323916557,391.469738805567,402.632705783976,363.379032354581,339.890706509381,393.191447322572,386.681385956659,331.24452493685,335.684617133972,370.668004360147,367.890138177799,403.357613026856,394.092067885456,410.14224760747,428.763630791631,404.1071160585,409.250104717752,386.520234158315,347.399868796836,356.230995683878,323.600582740723,340.652925223253,376.799832773462,362.175337457074,336.337399846232,342.122797230829,304.946189352573,301.158805594469,304.711629780691,282.47640060709,264.697027835638,280.619816512119,282.08927468951,281.412982165428,257.577688835874,250.366633344577,231.752058483784,218.231566082018,212.818077349957,214.309354097339,200.879112031069,192.126782504679,191.538406424224,181.955149685507,181.319485707461,174.929079870851,176.135787146524,176.599165401577,167.379582288581,202.911794883057,318.240479736059,292.54317777964,229.308442490938,247.149535389649,307.075420569289,262.043003772685,174.743432970617,139.313516472479,131.077324918176,141.899065406269,151.999930088396,160.329734272994,165.592139504558,169.426333195216,171.158072514616,176.345496397976,195.282062249792,207.738991722069,209.503587639909,219.237618870955,244.159541150967,268.813055166895,289.370273683362,263.374900828378,249.229243554648,263.680921485166,255.333521325312,260.131075686226,251.381897164464,244.438844056146,239.85150217662,231.055780117527,224.570545988911,220.161776088714,214.641875774239,208.735781573348,202.142716978268,195.59935575921,184.466938917244,171.264886441136,157.9566474691,148.170632139395,149.112735854932,151.155795189919,149.575974630502,146.193275711139,145.314458533425,154.137954326411
0,0,0,0,0,0,0,0,0,0,0,0,0,0,0,0,0,0,0,0,0,0,0,0,0,0,0,0,0,0,0,0,0,0,0,0,0,0,0,0,0,0,0,0,0,0,0,0,0,0,0,0,0,0,0,0,0,0,0,0,0,0,0,0,0,0,0,0,0,0,0,0,0,0,1.00506575565152e-05,0.00162930208058362,0,0,0,0,1.84547080334977,4.47224691876026,3.29075424530976,3.42729634352537,3.12886519069455,4.09908516293513,4.21009464738778,4.1297740251566,4.88196221787789,4.19067686075748,4.97964215704187,5.67099316405649,5.22764963041581,4.09056209383627,3.63507311122689,4.4880026463638,5.06662632306659,4.63023825569055,4.65693397752231,4.01271060991766,15.6748412126456,48.7759932164547,126.733570012771,231.455382445338,189.007247795859,196.504261522894,273.101822644636,228.161272952586,165.680069651779,156.017951138098,160.652679709478,217.273037556346,370.565015819985,464.554413271412,447.617280329928,469.417939373131,540.855680434824,628.421427936493,555.545550437254,499.633659100118,432.407031704067,419.767185146296,389.860652778242,331.299712849248,296.835542033799,300.182256702381,317.707285015719,351.529048026738,343.662684454394,337.711364985536,299.303914918551,291.556610600038,280.553197773806,300.692120258669,340.453113776418,369.499986435418,417.723836164412,437.78050492278,485.730009772538,483.674684975854,377.370966981494,272.631715422507,311.553100383014,335.190970135133,325.895719126721,280.929311554434,260.323863162616,277.234263721114,239.621379708944,230.138433993371,290.931242713246,406.521520977728,429.795822913876,412.600788549849,420.601878652008,370.915766226607,361.899734819428,402.126423988422,382.112604990515,342.310862252257,337.756596347962,364.572360529377,414.889777986969,457.407732627585,453.692297063387,465.142394962358,467.041563908043,461.836020932575,461.00859810548,417.897100200214,380.057261310286,390.074047514703,348.241691084315,408.30927302877,416.949149941791,377.258202776806,368.49745435746,394.605122510428,352.107357566057,342.836008218705,326.348624751531,296.629824343677,301.053963143288,307.633717096967,315.080930014261,316.355579276864,300.639995096247,306.282312660354,293.24089740897,272.460058545745,254.588500012494,259.307884275764,260.187583090792,215.471587247453,228.845698806816,230.394492252822,231.855454749443,192.995673289593,193.507452869831,227.284952022933,214.896655059641,250.054037775616,425.185958307435,440.742572343991,359.962734693503,367.101427912747,388.834243464736,309.603819992293,197.726632555537,138.911057775003,127.812350305886,136.038866320038,144.391025680859,151.41611196142,155.713231497517,158.753964002938,164.521191256483,208.988159896663,191.853032806263,167.87490311376,185.99713670692,206.207287597574,222.028589595135,247.742088603478,273.760813511981,245.588104655182,237.310262379825,257.632706483968,245.14592885309,247.526871041879,241.375852913773,236.946203407726,232.827370851444,225.237877709659,216.782862979911,211.743430877803,206.831084785087,200.534277670619,193.948265734753,186.44609811755,177.752778090904,165.747496712744,150.905448228619,139.621830369787,141.546761222227,143.858926927137,144.045468777686,140.366076897005,138.22586115433,142.436176152106
0,0,0,0,0,0,0,0,0,0,0,0,0,0,0,0,0,0,0,0,0,0,0,0,0,0,0,0,0,0,0,0,0,0,0,0,0,0,0,0,0,0,0,0,0,0,0,0,0,0,0,0,0,0,0,0,0,0,0,0,0,0,0,0,0,0,0,0,0,0,0,0,0,0,0,0,0,4.18592315642592e-05,0.00309283420997761,0,0,0.416009688926935,2.53525456221434,3.63518200565751,2.99941158255608,3.31190117291215,3.70921935699372,3.50988544065625,4.78779135092484,4.61862994022505,4.61277768718893,3.92249285780169,4.65299416213831,4.45362249417998,3.93462033557219,3.66562615656861,8.27507733817082,6.00322980313589,10.3274738117257,21.7125036054977,66.749439207237,158.32096173953,220.495488554264,221.212314086961,201.668062764985,183.364287355814,186.841765507319,168.120243100258,144.300166545015,144.340254925544,272.835766498751,380.661225573919,436.37263651207,565.97112892402,602.061108900344,666.018529715767,714.748543724834,831.052938176564,754.570594142411,624.630927475696,524.502322121998,429.265664445027,364.069743906716,328.596535908746,328.524838664792,347.851773052494,340.225856667099,373.150139198771,341.943210233489,304.530704234772,303.00415007859,324.884445788207,283.345919033528,285.001332379659,295.529658243522,283.301662373396,374.811643129577,388.92408637663,432.678436217822,451.525932063384,404.544040982721,285.780377676663,257.188183174802,319.85124132486,374.301444967768,329.998027482698,254.985360052223,282.569384610333,238.889511601691,227.917220440352,281.755279900253,382.152398709596,434.655225114478,449.136873105739,463.896885520224,413.617580523738,422.588286154627,406.183939140506,407.574851092751,379.265279161469,383.693275867955,391.724800235361,438.683344864631,435.827581154811,432.187569551942,436.156737455493,435.30791856781,430.884561490481,456.821464664678,465.926872496034,437.815022105881,398.136375538503,421.074741326606,501.477333834169,493.80714233681,448.512422518434,461.428922112142,478.774309583087,416.792614563917,393.22878848828,365.736719133894,359.592431932591,356.751060565104,362.854190484623,366.698620483909,368.47363405079,359.0665970223,359.21706939503,363.222668749735,340.066750099847,293.88980546278,301.133053301429,305.009876140704,248.520447862909,230.006160307708,257.203982900425,296.862693543434,265.078784798413,229.453229858637,223.076603073746,243.581944863633,271.832743530676,325.93912590486,375.865958046259,395.003397356672,349.641683002208,378.522264418754,372.114307850013,240.91562018974,161.220405152728,136.957490143694,127.775127421855,137.48637757939,144.205392133272,151.75779566392,164.735192315145,181.206404350631,204.045298455474,183.864025777039,170.436459611434,193.895397201012,206.127712184282,219.824278084339,255.659665948056,266.665072945414,243.64278604696,230.327511638342,250.0836199157,238.652521438657,237.583780534238,234.791565517457,228.179622683415,223.841236468919,218.674023077706,211.314082680491,204.140122087156,199.77732582152,191.702592010605,183.929389395106,176.07107871421,169.978522581826,159.567437735114,149.326348280055,136.415361389278,136.796355156887,137.716924942553,137.452480801818,134.344339225651,130.894023754744,131.094577942547
0,0,0,0,0,0,0,0,0,0,0,0,0,0,0,0,0,0,0,0,0,0,0,0,0,0,0,0,0,0,0,0,0,0,0,0,0,0,0,0,0,0,0,0,0,0,0,0,0,0,0,0,0,0,0,0,0,0,0,0,0,0,0,0,0,0,0,0,0,0,0,0,0,0,0,0,0,0,0,0.000294570045058919,0.000414703324795894,0,0.821563660760513,4.14432820517078,3.8572451132348,2.80914798159687,2.97322193150076,3.50918907477986,4.13647802936884,4.67812890691884,3.88086969193181,4.01823761530954,4.3947862100579,5.33088090534123,4.07479199251154,2.00789500544522,26.1397868849184,51.5894953418214,49.6089906509136,67.781167299919,148.186882751163,247.502271021861,206.419509446595,167.883984631088,171.149992244205,201.499641340619,173.8489872732,118.441348880861,123.401530454682,204.480087978465,298.48004651449,348.676901439775,428.751262218064,703.341632211166,785.652842842795,786.060659668059,771.52310015063,764.242152484979,741.876503151015,622.964912785998,545.783224579263,452.788872863602,346.398349135889,339.871626158789,352.059280503987,321.810472977283,357.934751921715,353.1063306595,357.957262567085,369.721982665804,333.019746374638,318.635454340801,327.684728854658,350.230641339126,385.638770576474,344.468143170194,263.044237921939,302.911247408516,328.185672436229,346.157050049387,340.901301231477,280.025827554214,246.407991176558,293.628925181103,355.295100437187,332.473099313357,248.939262263974,267.764465609745,230.678437335054,228.825876626432,286.403571128257,339.55098993498,376.960318606652,458.721583408283,424.943780020445,411.429133123801,464.530091207082,465.933257219497,440.761360251225,436.264919342155,450.45130997818,429.085459958,472.978123311173,411.49345067411,414.757928422551,401.82119031548,416.00360101815,416.357862569081,448.459001155836,465.714096116257,509.948421160344,443.595807412482,467.296052518036,533.597103365955,535.609207127945,543.769839295635,535.363873923634,487.804845358325,470.140449101691,420.583640600152,414.632178757112,387.131952846737,388.64437987937,412.673073048469,363.891993584673,360.939658124253,380.689624689532,333.577543914532,336.302325985466,365.779918702092,349.23217609099,329.805081884331,339.974823853369,283.471330822126,256.389293918353,291.467427415087,334.743143644844,376.278076843933,326.135216584356,265.473738139136,243.150393442629,273.164645248081,257.312541220845,283.447417734215,288.342772778041,260.638973955778,371.965780143269,389.178741781869,327.128102255365,260.389651705525,201.513749312994,120.180865745364,131.326106530087,137.312425311137,174.866874415467,202.078329976107,182.693150958517,167.603903560214,164.243787768252,168.836663999037,210.870635588636,221.878645625259,232.832050676118,229.121123519316,247.864324883646,239.496284991381,220.393512167118,241.503216169674,235.604868273833,232.359097998417,231.711942963023,221.743475029829,214.440337586747,207.502284722521,197.279454946469,190.710456204231,187.911093099097,179.819592270413,169.796723396648,166.378294481695,161.731144929871,155.950022828536,145.818637891084,136.332298937295,129.611917829791,129.837384388219,130.23506291018,128.06523176898,125.357043552695,122.677185968381
0,0,0,0,0,0,0,0,0,0,0,0,0,0,0,0,0,0,0,0,0,0,0,0,0,0,0,0,0,0,0,0,0,0,0,0,0,0,0,0,0,0,0,0,0,0,0,0,0,0,0,0,0,0,0,0,0,0,0,0,0,0,0,0,0,0,0,0,0,0,0,0,0,0,0,0,0,0,0,0,7.72039880831233e-06,0.00812557292681871,0,0.516571295793281,3.22511409507476,2.94885273009863,2.89602367000444,3.21465602650168,3.14648214334197,2.7471213279731,3.29761402994347,4.11018780009474,4.69353329991848,6.28888070387727,4.24831255516182,1.11382318019743,22.8917586164623,133.530295468714,114.181503266727,163.012810849925,223.978946246216,326.452653989938,252.99433630093,164.736072447897,161.039888011716,207.285108627333,130.68702895432,122.968681325081,188.478939199309,162.398049492667,219.201312705693,277.097704811097,399.513094153406,690.389857463318,856.871963728461,807.255111682356,847.648115019715,757.745032787275,596.640746954696,604.690643986562,585.729537899801,553.445209659632,395.594211613718,415.112165191761,358.036837636206,362.013121500182,365.509272053924,339.72790423851,391.325079126823,439.116046593005,377.903114972818,370.044841702872,399.823771383387,358.383510780472,321.798324977544,283.392008083823,258.40479336596,262.210667586644,281.931342395888,324.820672515007,325.735095642764,282.398344266333,246.012015013762,320.518540942208,372.53930984603,312.031014850265,239.898137520697,268.917481687645,221.889411156982,240.543419106348,300.373481587432,321.071176706741,338.390043645743,381.903100716075,379.013316280729,399.306161105416,506.43951929134,543.980474449922,473.031259605564,437.496784150702,477.011290223777,491.41238659224,497.64358608619,446.137741001686,374.589807590217,354.128404022734,375.953327229573,393.309635115983,387.37574684379,415.701773415148,491.930470267412,472.167018562,430.43389812823,476.997669788026,498.643588135398,506.001469227905,494.108295408839,444.962165579318,452.758231925018,414.310725521008,366.690745127733,357.86867850857,399.283023610007,385.880083923657,331.928904674885,338.689532743863,357.218601133674,286.493926850653,276.74874781726,322.640341842725,328.177885205302,288.248354327421,337.148857008117,349.700871889221,348.759216597588,339.178945144829,334.977884542688,358.263028990271,334.46599371008,339.104505936297,301.761286522925,239.609773065416,231.782506557273,255.189577866957,235.836721572915,254.897552553663,301.242902188338,303.441938460443,280.16879947451,280.229168313329,180.051290539548,119.372653331912,126.364269552067,131.366215358017,140.47550242017,161.906949650895,168.128943392813,145.273550471703,150.018833409842,160.699635522725,174.93498272168,182.336169765784,205.627226940459,206.422200329474,213.963986532634,210.72613855308,208.125080116974,233.475166794435,232.205111832824,224.348589092853,222.526464232583,211.559699524513,194.040792780119,179.870856650949,176.272763821892,174.761026062483,173.049014485737,165.689647329397,158.020945575255,156.87955361558,151.946330750989,147.346011980883,141.193904879418,132.450360044664,125.370100870013,123.677903124666,123.33888296223,121.442119450975,119.709272182804,117.973924326517
