330.467019186896,515.783960019227,511.855917529491,397.946102419991,346.173888594717,492.619274362554,702.199514380703,820.838896720663,797.6143978255,640.158849106725,513.100995848898,540.476500024805,377.192602872845,207.638209778095,90.6074265980374,105.806456427366,235.587656338532,323.750764986559,373.744778374452,407.375893969538,362.502972234668,423.49822649529,581.905482185569,628.043175210393,488.166584056966,410.266881405401,319.852928285106,157.279209709595,104.22584697772,98.9900374801435,113.037293826086,118.755826677299,122.927596800878,124.343478518573,142.495525059192,144.543049080838,102.895730336901,189.616541164589,254.452543240313,252.386591270142,384.565162398858,530.892511291163,671.774623086658,718.183755567932,607.290087254173,576.402374445734,584.367969813266,656.998687791072,651.796024274406,556.425374700742,478.554921207705,416.794844471364,494.810952098037,532.275983822151,624.142133767787,730.572546289971,794.573800957298,864.033984655241,940.350291491561,1047.42433776713,1123.19470437722,1142.72214161283,1205.07479985923,1118.20822400092,1173.81882922487,1239.33695133082,1323.73728122322,1441.18686739938,1623.64344473361,1591.68716600312,1450.95641289104,1404.6562770151,1409.60896736977,1404.19749861833,1537.7868173236,1546.15975503241,1378.95653792055,1188.88828096664,1030.34727407406,903.609817355003,904.090377443853,946.178193159385,1006.41025052069,1152.25714945372,1212.23546045066,1069.12566795369,946.727709020431,942.348450787285,837.049647372734,832.732364202184,867.376798602246,864.474629162008,957.970446626423,1015.04577738834,1070.16043564582,1215.03974396378,1352.74100280029,1486.85013990155,1581.39242094043,1532.43595083567,1421.76435410019,1316.58656795271,1158.68756907986,1027.34531917588,985.958597723544,854.404754910025,811.373592419372,817.851069042081,888.938918557198,1020.31144332205,1100.52951534532,1043.68333551296,994.189053500343,997.375412670046,999.408786544079,943.54310081337,1053.50787603934,1082.32867859738,1136.75199022745,1192.04737197909,1267.03108608844,1394.53698666272,1503.4440085328,1617.20642990921,1650.01580751315,1550.66918906026,1467.02627049356,1374.09500606773,1352.53469517249,1383.35472566897,1350.37999627168,1277.81582657536,1335.31368767932,1426.43840279897,1422.77731385901,1319.45232900748,1373.71909394035,1433.02550406875,1449.84956409664,1343.9488727471,1222.26123134524,1107.04887620135,966.516975570227,878.730822744076,863.46632985927,829.980896377418,876.301278467715,1034.59314634214,1070.43026679275,882.070779127953,901.523587645175,838.409900139055,789.476728581336,809.182121278264,811.939872019877,715.330479184695,602.47442590737,789.866550740742,959.419758440364,1007.78357362667,843.709154428029,729.467620923893,705.528709264668,690.023869246096,636.557806234306,530.327075793266,492.300657025773,499.167577399815,478.08711176699,504.026523045433,513.59361395057,489.600708452847,482.950133962063,481.655424821153,476.371847305229,472.671314267621,475.841379574015,476.149562739378,466.510625216702,470.655150000935,443.191316898033,368.515410536276,330.916725583185,383.881002086442,400.89262219019,419.082488431011,403.426372208581,360.962459778726,419.10856312174
346.818097393812,600.570712793165,682.159137438402,603.320969652494,466.205956139939,527.380365417309,736.165716405467,896.012540250993,839.709278110082,778.343268179421,751.836779032321,763.746261563276,580.816237598136,308.154528786,163.920801260386,108.991454775972,122.355839722417,188.383363297384,283.910610622554,354.224571776755,450.79967311237,529.258415248693,618.67824155012,673.433045334354,628.102198001109,523.552599310997,394.344247695942,328.976074695181,291.519750310994,242.283499331493,252.867514543498,135.199041450415,63.1086707924356,123.306989239364,242.565700110515,334.753607772894,157.958680072367,88.0696114049234,220.125121598499,323.168214666623,446.652428493163,572.392412297448,577.37450904711,653.241943198464,538.069989932247,407.006789579127,417.603398060768,540.057883103849,656.415368519434,610.496924211957,496.729656584735,421.193688888479,484.679711442889,517.492184266212,564.686183816166,646.492315383858,719.011258402205,798.224868642761,892.211215413767,1018.78206837546,1159.17237023268,1169.69294223335,1310.29344973758,1241.21554776055,1273.66340518575,1320.87905640357,1329.91575113471,1541.13754453151,1588.99457913908,1508.09294810428,1376.64895752337,1227.78153413522,1252.54338267868,1303.52469454985,1379.86789951185,1442.90884576149,1361.61462378253,1194.11227649437,1024.41158923236,933.682093814527,947.288266040328,918.353777266333,972.944278363354,1141.11203641095,1206.70255958539,1081.5626463044,916.02600944953,860.771753407572,858.897642757547,882.144792780429,831.825310060963,870.99433248325,841.363476238336,853.430868055199,942.814482831553,1033.05827893711,1140.94154143798,1340.82205881416,1496.82176893827,1595.97936331424,1531.30998274683,1407.16260976526,1296.05123402516,1211.38662416539,1056.30493147224,983.07582404757,993.583455551428,879.59009037017,811.31959003396,896.670763414098,1040.555183996,1106.95378719468,956.218567713555,897.519348386242,927.789079841489,961.569041329094,1001.06189156654,1085.95074594299,1168.59923060382,1274.33197943006,1387.12671856671,1521.40202410412,1598.85090807263,1673.86771664356,1643.21511428335,1524.67490214661,1499.91687016309,1485.44012025506,1460.7941016716,1485.47936045878,1420.83585386611,1326.9105980064,1397.87893721146,1528.43752779126,1522.30967989861,1421.49400470931,1330.40311632859,1311.68569543218,1339.50882004367,1284.82109939108,1193.65074201072,1102.177275575,1004.81513025655,934.933273428247,864.863624791771,807.439159807499,805.228289264623,895.207852503153,872.659150448525,800.395161286385,748.927163461804,728.188166427464,710.242513807458,756.541677810987,711.192442921028,603.633019437231,701.362568833661,949.965209751299,1117.70001020719,1016.99057990924,811.554472144652,771.124526602887,701.22931029229,633.948065831334,607.624279783776,561.338356005656,502.591605990837,496.966477434794,468.106230410003,483.081809288314,515.632731429941,512.268170649971,494.841557646101,478.582863553542,457.600022468812,456.38922571511,449.218501820597,436.421502486114,426.747593151972,437.129827098374,425.033237352929,390.140959824482,345.388195976912,358.608832092002,372.832940487058,394.667945299266,394.510696095175,385.43938636011,424.727785580843
287.896442852535,440.433864212805,548.583755730903,660.093036552296,643.561270064138,586.696954521551,712.611443973074,945.419331562664,920.088768740921,829.633129244698,732.672080803379,695.822845297386,632.558893279921,440.502254081446,329.507658073521,218.116885045852,110.198745258079,104.445553084035,178.745614471599,230.748611441478,369.670079524718,546.000447189192,554.798535358064,521.770950185969,530.532092480636,566.325516321939,507.197298846984,470.513521404969,448.398630635458,383.099575281992,361.027581413716,273.420068274492,145.759329607259,244.768818864268,411.384976015027,479.287041389601,264.924670186345,103.754821502737,106.847832085277,212.891118534612,363.003689466496,451.850631087619,439.636204602585,583.190512128055,440.007101120674,289.233497201796,365.371116665536,472.389087607426,604.416854489265,585.584248752023,501.434571955136,430.953556804737,431.576810012944,505.986668733529,524.086725044493,563.404917354696,675.500825710778,785.491323861467,883.858525164074,1004.39360946079,1181.66225941335,1288.81980564517,1403.47213583397,1421.61035641639,1453.52653127452,1497.72903750871,1418.29663267463,1587.12964902051,1470.16598798803,1342.29887758213,1329.64351539878,1241.60208249434,1143.49366784628,1183.301469598,1213.3812694146,1297.0863469167,1314.49199092156,1183.56141795072,1030.6132619767,957.880642135719,1085.50786019909,1012.54264398136,947.351776639779,1069.6824768099,1144.87009516114,1049.07767078874,988.020617548676,918.823493286526,908.776952017568,1058.54307833583,964.002682009347,985.471865888836,877.440633032169,826.063896936315,859.458971068163,929.670421504238,1041.62178942863,1201.44325750384,1364.91961439842,1547.37229522723,1620.39447811734,1544.09945096194,1443.82952454188,1311.03960728698,1137.69398858926,1145.50323745888,1157.76567064997,1040.00709879999,874.459537711786,854.412424323236,909.199217256248,914.782393949993,875.409474305267,907.515062750342,969.783778167395,1059.77391555087,1080.5437694679,1124.23685235127,1217.51688050292,1288.05566261409,1442.30373343251,1495.81083279609,1462.91365375274,1537.48622861726,1575.83577768024,1446.77007578573,1398.43821743987,1425.52969642335,1481.19740482778,1516.19644227913,1482.80349443356,1426.08540842063,1486.98347025534,1609.55846485459,1547.54773229979,1463.05287491828,1358.07205080197,1259.34978594201,1220.16671338746,1165.32266463725,1067.50655625896,1014.70103917432,949.07499833563,894.339079443505,900.269624349112,944.115510622864,895.711979208864,807.893238753324,815.381014330415,757.256849358474,759.669091127726,811.997098266198,688.196466782123,648.50425309481,654.112214561215,792.878979134951,862.80285423638,959.068198683876,1189.30431789476,1068.13472020488,912.390946668618,915.817610802846,763.146952250276,675.176830473207,634.244160219353,593.478351184333,539.401152858818,560.750728861208,504.426491424904,459.483653250971,474.647993114197,486.641872195356,471.739352543173,493.274084265006,480.103997152329,447.451905246866,423.592981902071,413.410914387672,432.026968493215,425.551613060087,409.99758528398,361.670977838715,321.609378847142,337.647662360012,377.514484119774,396.272369291312,380.886737876618,338.038202808527,363.815316202119
299.895412784465,296.75081890625,402.119592310428,548.217225419131,654.607253585156,655.78103890799,716.609568757611,897.789297780649,861.314818404827,784.548542218726,648.090607284472,541.700544107347,561.193656386716,546.108192403104,433.832833333967,310.64931726872,222.012153336959,157.992229813727,105.472849918469,141.37710466002,321.208317896875,418.828756851614,458.037246628993,410.053626954055,362.672560395701,447.077315287223,487.674712897415,462.475324575317,441.413722971033,354.153265569926,256.501143009825,208.304091184556,149.362734604065,225.441777331686,388.686318770481,477.658462168693,349.113387885046,216.116302109418,157.003948796909,127.426660572839,222.511820230353,237.292866067965,264.27610652329,314.164541660411,292.577602715637,414.698926834865,466.483008788202,512.957556127098,600.842477673507,634.124470498074,582.992940118779,476.592650934667,423.823996653411,515.652190760735,592.697002177581,643.817047305853,745.552470142849,844.628040707027,941.955730677191,1013.87583690237,1138.23353107663,1277.84123742724,1370.36516866898,1494.77793140273,1596.52140403137,1601.50223080618,1543.16054006538,1617.74701305019,1450.43955207038,1325.78805435074,1237.9781225033,1154.21212852524,1118.37827166664,1079.59645828026,1104.63489340907,1234.24746458826,1289.44191383551,1195.22123086532,1022.8296560096,950.533081159473,1125.17480319393,1151.94415759603,984.481800434466,999.86716109931,1077.38783166986,1132.04954172996,1084.75228977039,968.599264837799,918.492778534823,1076.8505541851,1138.58804529181,997.468772184884,903.516145167745,873.28255917784,819.80208400476,869.031383091112,949.514072880484,1055.34512416028,1228.20239730324,1406.6018633573,1595.51795364663,1677.16826317762,1569.95901598762,1430.87766611605,1273.88482241471,1281.66265269572,1276.43783323876,1144.99146246635,1026.78037910595,920.126625320832,842.856644773724,893.382711586638,979.635011560245,1050.7427920916,1065.39241718596,1088.00294557544,1191.55796437661,1148.96003747168,1192.49513815544,1261.5696282944,1348.51876517268,1335.69780098878,1331.57860485505,1418.75517196929,1427.72150920888,1337.47484514566,1294.45499527964,1343.97788750238,1360.60016172159,1413.66681052059,1492.44308090851,1496.8394164539,1500.7714768851,1591.64929028947,1531.94264998117,1435.05401427271,1374.52538531142,1289.44481591047,1168.07489724121,1108.29234572349,1076.09079190329,1023.69311093228,1021.94160083069,1017.6552033583,1052.88277709853,1070.87095990451,972.910105310359,988.29110790691,1021.93435542857,906.753846820385,902.398466544124,965.676955900867,786.615114717374,653.821674801804,823.35170399067,1054.55334646797,1095.49250257365,1052.32275283994,1221.72859084428,1198.00322097442,1091.30622114227,1032.22337442837,909.264166537378,805.235303540779,756.635721668211,672.616546764082,599.830149782041,597.179025321322,535.23744570902,473.738029801607,449.950167981493,458.377075954978,462.134340867604,470.063735048853,507.31404637556,471.849802437103,449.167481671178,453.064363553254,473.48701123426,449.142755282989,399.181906944747,358.775304767388,311.876971598606,294.205819220159,308.50952011251,320.170673076766,346.803798000319,305.285019189253,283.340757118146
412.152108537571,369.839385142057,327.364398880141,394.67971551537,486.202943062867,585.580979762284,692.241547754568,761.50419644227,671.492478071268,711.962149442414,678.77568503793,517.903479110538,422.311077595682,432.032648416036,382.889421992019,245.215105433252,153.308182691494,137.748161338275,109.386504449965,143.888872053746,240.134004527379,301.686127347375,341.152264375405,287.050873468097,242.247979859831,329.029097919344,348.678111040584,297.720081267054,316.367838541493,346.301594519495,312.664337628132,269.694675423252,200.234659464299,187.420367171337,321.160054406701,467.203188278611,418.256233058835,324.684620715194,260.352284710525,134.53057866435,108.535314452742,98.2628698150668,127.691146718945,170.294977237955,323.6044244454,491.76089027511,573.365884129166,597.568797232892,667.394358212455,656.991587599141,565.024988428714,486.468108310608,431.27327946332,469.39110478065,555.495097792922,631.288786040221,756.966044070045,866.589016892181,921.996959929784,944.29381755167,1011.52159423121,1097.25177298289,1197.93846270577,1421.95343271572,1576.30765501673,1583.75629646968,1590.34926112333,1628.73092784677,1573.83451259372,1523.8087878845,1419.80293845483,1303.68675350356,1264.41296390181,1120.73779916976,1045.78165084697,1117.7293146692,1176.53159012848,1169.18744568295,1016.55722199907,948.414118752692,1065.83726312551,1152.51583171685,1004.87136376139,942.64550480015,972.147023197279,1078.68892619739,1145.83405453545,1083.73567272489,1039.37628973031,1126.40275609299,1225.22338883473,1078.15775309659,957.655516116804,862.660437128216,831.275744044339,832.052035039889,877.040820687423,966.027519616199,1105.93840543389,1306.16006747795,1525.39114176851,1687.14687173735,1667.77185420681,1555.71615145183,1424.42068564998,1430.10389070551,1377.47648812277,1255.70656467396,1207.30951917575,1124.90534969039,937.102486943973,938.656582603152,1084.05686806566,1158.84071125203,1178.97036127849,1178.17397135874,1198.82017711874,1092.77250586574,1078.19452439317,1166.66328487345,1181.02216004593,1192.01657751927,1276.64272444762,1364.59122366937,1420.09205612974,1289.95348614512,1241.41004305952,1330.60808983232,1275.96828463332,1290.51535471392,1408.37176759218,1528.64076686458,1532.77421442167,1598.57059138512,1590.45779822462,1420.88536366957,1309.85675145239,1225.29158620822,1199.74717910145,1234.12792178474,1193.4907829358,1151.13060440524,1116.38402734123,1119.80801539776,1190.26421182888,1127.82348760896,1047.78326192008,1218.58302794979,1268.58206815652,1113.8822132627,1061.99504308357,995.93822062793,790.391114555099,705.660602023709,827.311034553078,974.79493046299,1168.85000427324,1202.9066997665,1188.2957814296,1185.40295147476,1157.4315659687,1109.53393515332,1009.65487836288,922.665545322522,832.555872879954,740.814536800826,658.264857480314,617.541543064465,559.221494671872,514.326085374706,476.686225405413,511.270048026689,514.849070521047,496.039666321234,531.622047554569,460.992770589191,448.271141505093,475.76871632356,482.414377815434,465.491185257371,462.826928017003,396.483943814793,309.855794020862,302.605520976037,334.46309486616,323.517274780848,369.984882671012,349.622838344767,344.134435368447
474.956612969142,413.255828333387,335.357039652838,311.840906309167,415.543499511893,522.889144253125,605.620371631071,688.027423124453,578.291495140341,541.539423918725,548.057894609019,471.072155754196,364.750760927255,331.057452969548,276.36809680563,214.731360216608,229.811192175034,179.734771181935,104.189608977765,170.780059346157,203.935191769704,292.912624436392,279.980634276133,194.033486705676,157.623019922453,214.662275619008,258.317944693038,197.955650490525,251.221510950385,325.344087071248,364.359216130145,392.355949865013,358.708116376522,207.136518685016,247.963952077872,418.629971849212,516.618270531818,409.771750872522,284.89548707873,254.017874026799,246.007848396891,119.228527608676,135.346118974705,281.988399942527,254.309715709489,367.623924898821,570.937708166434,618.986071022702,619.032299463748,659.381093818512,630.994574534958,561.368226405837,474.742054461941,470.338494388629,553.330154823666,639.097852518612,731.157567072974,816.715111832611,839.859964121286,841.72768974234,899.754103621068,1033.58960376837,1181.52668551222,1308.44607364295,1433.15469957202,1470.67127341221,1426.32826020416,1471.13459156774,1534.68804583989,1588.06403563688,1545.39559600538,1540.47314103504,1379.69565265315,1251.99164920373,1122.72459932763,1036.02265324069,1003.0182090873,996.562409119681,995.176693601544,1020.88915090786,989.761313608987,1048.50422413332,980.32440311346,942.967427103567,943.560010548564,1014.8075859456,1078.6233151634,1156.80762358769,1166.25632251614,1259.30214469141,1306.59181694633,1164.93185973857,1000.14483427101,915.045100072178,878.670585463179,859.690239826209,831.153963567852,910.105039724836,1007.20284643382,1199.97634486717,1417.72325829736,1606.27364093216,1719.36578153302,1684.03554658225,1549.54976888968,1545.60929878333,1490.08128248187,1406.69138298219,1362.43800745875,1219.68389340027,994.198073911008,906.643424515217,926.07112709602,982.468691744447,1061.23379059993,1131.79928535696,1161.28089837498,1066.44410974209,1064.47441913919,1072.95252030091,1106.75968293651,1201.13507478366,1297.06004591024,1401.12813382325,1427.82838556855,1291.96677077789,1196.63204822397,1261.6250353381,1242.32770512109,1247.42716361182,1369.59566170022,1456.78137418488,1509.41004093401,1603.99644134416,1588.24174207466,1410.92469490549,1287.71546370285,1263.3138496794,1311.13163443122,1324.82690199901,1255.98894743138,1245.55807760377,1232.18185896623,1208.90141500273,1278.50755247536,1222.35069153533,1219.71280858468,1364.71842811755,1428.92491641085,1299.98476799465,1153.31522229196,999.642610127229,789.474690633252,773.52022829797,907.323880731637,1001.59879362786,1173.00229387423,1112.22014496295,1085.77764665422,1171.0459069018,1145.78916494092,1124.99600795579,1106.52586920546,1014.71354076963,941.741809488708,875.182448033968,745.805711295912,645.929203090936,577.224118252187,532.400344852406,529.643110442788,531.887378461356,517.408023203397,466.547481129839,483.993940442165,415.92052822304,408.024394277324,431.534203003118,455.557916662175,460.664619429946,448.406254443055,375.560901570685,306.690822042572,347.890232257816,387.992182358393,375.674769850043,449.889735103127,412.635266515038,391.069635235459
488.744205263875,442.32845617579,386.085901184798,413.098778859224,351.621149391313,383.56839848739,504.584608849691,608.447755514276,558.521089708456,492.100628981501,447.384471383216,394.039006271321,370.544938961357,436.069625167224,315.346102891138,297.279788193279,376.127189655422,300.70394801317,166.915013394711,101.969872685221,182.385112148189,304.85725680969,279.985879905144,153.433125538494,121.5435783096,177.29119823611,157.526843977782,161.304090886645,184.843871670376,245.335443109179,277.290833545281,308.081917475091,373.66561856118,331.866146592646,288.094106734164,395.418374527585,540.050146383912,461.03781840243,410.896186146507,415.872980296602,295.425215547023,107.912364420889,153.639511637173,306.003143687617,360.711116691926,488.162562133378,616.637025688307,493.253133976591,453.453321326827,554.330959755787,642.837558713551,634.598706416888,531.369419994672,471.153089303969,543.891742903731,611.219867727491,644.599984712199,675.028306782788,669.628304124862,764.141344835048,884.065748066331,1001.17528214012,1102.85301320475,1143.04004307559,1285.26993601575,1386.50641457813,1314.89756034025,1329.84450105246,1417.0083132574,1481.69639437086,1566.19633976488,1625.69571012356,1577.20611134506,1410.60854158211,1219.52935952753,1086.72510575691,1084.14699563767,1068.59515795668,1104.57285454582,1193.07468879736,1052.84063142416,955.706975703325,1036.40452061186,1023.62828286867,952.050455171969,958.434255795908,980.834010737046,1059.91077724043,1114.16810224403,1253.56559663918,1395.34965413245,1258.27057984491,1078.53520926482,996.798936271068,951.460091972329,874.729051241554,827.930546134927,866.790714375404,998.706233600116,1178.28209871647,1347.77937174565,1522.31952362409,1685.43676437517,1728.24468141386,1604.90177729632,1656.62552296944,1617.13442044389,1521.1399747062,1447.69693888279,1275.92700559614,1057.67371542268,1078.66546343173,1043.08451244862,957.120205329163,912.231821712412,982.416435173407,1082.64889827853,1070.67215965401,1007.12702850672,1074.84818790172,1187.97621898997,1274.49416851058,1339.5205906191,1439.844508467,1423.12999954007,1286.88731155493,1190.37613969591,1196.23394344113,1213.27336402142,1236.60752645795,1331.65430132629,1404.44243663779,1429.19033077851,1557.01436975572,1545.33077766592,1406.4321327256,1408.93341341423,1389.52741170679,1484.9727169572,1505.67107500621,1337.29007422932,1361.75934833778,1456.84156935043,1432.65198820258,1434.58394075605,1324.76373566709,1234.47096874239,1259.04670915827,1237.98980951448,1107.98823985644,1030.85451124576,1004.90665212982,799.63184394395,823.253287990038,948.709254378272,1007.57550899497,1009.89974901374,1000.30957328293,1076.32092135266,1132.23105532033,1095.25330389494,1061.57670761372,1092.95332071766,1002.9729287931,914.378953439418,851.41945411601,781.891794702874,683.13067083939,603.480742744641,526.771024782763,524.998075941986,529.932918713406,485.955118669755,480.296485870728,525.785955853641,431.309008641268,400.26257018441,393.57537539306,375.212499390083,378.985537657457,374.682702193221,346.726304094729,323.561609423615,372.905770664534,409.338418393578,411.328483658295,459.958889263288,412.84251093737,383.735271355709
638.813132708178,546.453222171847,445.089828961183,443.636283128881,388.844448094524,415.658378162405,432.011690984176,516.1636888653,629.95466650689,621.434732247492,527.219786321193,431.33087920735,423.372134449497,540.074948063143,503.324072833928,461.003995145173,513.376185756166,485.633862665498,265.317299092455,100.425985323579,120.222901534391,260.087434865402,254.035151365758,120.895954326371,108.052912783003,160.359724367528,256.719993178162,270.409294931767,248.7059395527,202.55943856678,205.136533164964,280.058241027333,399.600298148371,468.034021760157,440.221438255761,466.861550063136,578.842493642173,589.109548973833,489.204784421058,425.146389103232,229.348986448097,108.840941113334,216.888306749801,296.714511681247,368.461068630884,536.495345724146,597.410686667373,383.169234138259,323.884324964989,429.405313356823,538.729672654662,647.238613628008,602.080852660134,520.621218907266,510.231900277637,512.387020496545,510.481001645796,531.099422323361,589.483528512956,686.439040387429,800.104518911958,888.084173409511,995.908137065269,1078.24480435745,1298.86232882596,1385.6544057584,1216.04478737069,1214.30517702091,1216.4825189548,1301.28521017464,1498.42942197819,1663.87619135201,1649.55647464567,1452.92933687506,1256.59670478802,1179.65197575831,1133.32534481062,1209.67431926454,1220.58031389094,1235.76386415839,1091.37112186014,967.672930347239,1000.91760238613,1067.03424461485,977.201405276717,947.129935814159,959.223143191598,985.732005091006,1040.48119682592,1167.38300294504,1359.98832285489,1305.9635745526,1091.95210916013,986.955608022416,902.632330186807,853.640574793066,839.66664998402,839.589516577745,948.698672742509,1094.14773251552,1253.89975883513,1431.93108388664,1607.34788097349,1705.19089856792,1640.75857011113,1693.38920011924,1703.93844091155,1592.11107533648,1440.01426028487,1250.33241178294,1108.94669026287,1148.79592070752,1210.50493420106,1144.62184704793,1008.0855828211,883.391881633364,911.76489993941,954.037439260638,980.104517219692,1151.05353959513,1215.56125724353,1267.10342645041,1283.17574803298,1312.90299862622,1413.24866437484,1327.55117663261,1225.66621185366,1152.99000058033,1169.79775115165,1259.3536463744,1331.08851355092,1327.00499406977,1372.04903283536,1453.67872368623,1559.98761052628,1487.66084774781,1497.84186034417,1513.72299003673,1647.11334579331,1609.49570583047,1431.95118967541,1512.78395035934,1659.52454747324,1672.8056497554,1544.74021147494,1342.8767230838,1156.49009050811,1081.08455507833,1040.60689515984,998.613583620619,972.620071743959,902.779612696805,822.533313477955,794.698618089649,886.063615369166,940.769188307129,945.148879362873,1053.99525720805,1150.86387616761,1192.90351593706,1162.12140036575,1056.45907102816,1003.34116726414,956.930319177573,903.961922635657,797.90649654176,776.320109403852,751.281510112042,642.791268949927,564.144673570523,497.610645599685,485.98475003941,489.88679629353,498.134608997169,556.688209204951,475.055597299972,422.409941116939,427.977427138078,392.882740421336,395.004675448593,423.548574522645,379.052709734884,331.905603764699,387.865064352646,448.791509781543,453.070997254757,455.491326064297,422.540380717956,393.820361493392
778.142828232498,598.616118401489,507.837585125021,480.156217721412,420.970231747569,540.068129720171,563.352696624677,560.099206675025,725.230794407642,699.307039586326,545.679603400231,553.570300975177,507.830946758937,596.235139226161,671.691371350094,612.676970708266,568.723211323161,457.774536618893,312.749312314208,206.831975701958,106.708630416636,113.78201890155,171.540337955632,117.173927530093,140.891872154898,135.122681444505,290.089399501178,350.701969858482,332.4132940881,325.783677748379,275.045949523143,279.657156720861,337.965498632102,409.006798056936,479.402396476833,583.119495585465,684.829939058894,583.049103770575,404.712934790788,283.291512788952,158.219636709508,99.2967081924935,145.509997381949,220.331609397361,320.365446140654,487.118843515976,483.619435779488,314.398953813774,240.281684906536,334.178869066996,452.07298641487,530.264077697177,625.524704263504,554.316351551003,457.128050694321,389.547597419555,430.945096378689,538.065637686927,617.22606834214,695.624924447898,820.666620697383,949.950290493632,1022.17384505664,1086.23142027121,1243.65753771459,1288.33559578205,1074.1263731245,968.788803082781,1055.41473754073,1265.32301158392,1486.69098592335,1638.97055340288,1593.39112986683,1462.56726733893,1443.97646723418,1327.42328042479,1155.11738866526,1272.15513212951,1356.33710212462,1215.90569229457,1103.47473111645,995.629866743246,962.707857732349,1091.07638486828,1043.86293772043,948.894374183992,956.899739739619,1015.23833005723,1054.97465264149,1130.63964505826,1291.25546883838,1290.38176859068,1148.76650820053,994.077480527678,936.490220953793,927.885676153085,875.313201965091,823.000760279954,880.725074991953,986.314154528822,1162.80590039765,1353.4967505095,1528.72629580359,1687.08167244664,1743.85695183611,1744.74950047329,1738.57206327749,1596.61629704936,1440.09981523915,1322.85547568749,1288.34517509469,1283.80856120032,1272.68629418914,1224.37149005944,1074.67033340622,944.767447224919,954.146048713009,923.145846578936,922.694682977348,1035.37264342156,1066.49519580402,1168.82916071166,1156.19831393951,1248.83368421914,1414.40018939077,1365.40525035997,1250.34225109911,1141.54537127233,1117.78387558382,1241.0144938818,1272.39783763811,1234.64584448873,1295.14186497243,1417.61609829494,1518.10684482796,1554.06281208753,1560.86090606074,1619.52483988431,1661.00026588232,1592.09541627785,1557.79231345272,1627.68645026309,1671.34336106671,1629.48177930091,1469.03057113876,1318.01766263056,1220.33062424708,1125.2770509997,1092.01836095123,1172.7129580037,1136.92911899584,1057.03551963414,958.873928790074,825.88117442033,966.194918325387,1101.87625724974,1142.51311283132,1131.36443947345,1189.04753691288,1294.85813462817,1185.56244560349,1062.75927455332,1068.22615851185,990.925897109607,888.541098545018,803.602397781518,779.167928705251,689.537593573318,646.491790718844,600.359093027157,546.410879161467,506.902774309505,547.18023237481,558.071925710281,610.039528684286,527.711321250418,451.605064977061,467.200738651282,441.171763946236,450.356000401631,448.966731711255,404.187452168366,359.231200375384,407.960751384395,474.06222584676,456.996744416539,439.84845321929,410.804627087031,387.826286532402
794.265677472531,684.792286697362,630.499731155094,612.812186314447,531.428453212597,595.381928753184,606.648082590513,610.535610755796,700.85171648169,688.894926659493,581.548024987827,620.021981225938,594.704536685288,612.07325877397,678.266797368569,677.307177344414,501.371009888918,410.116377146595,456.549672792158,326.886672719431,162.422061315399,63.0073354313493,58.2015175310125,150.778580997301,246.798312364326,118.677431591926,182.451685652554,286.99866709837,274.36765869979,306.508414639969,375.447259378625,374.930460366718,341.621883939274,417.140625428419,498.985617063656,641.312658171128,687.031964214459,533.33875697873,409.455101883088,308.030701593827,219.4232435376,141.641322893328,86.9576850496282,175.587943680628,324.882582621188,436.835877722886,406.679298935243,307.882170878047,204.590726037089,251.339983247934,307.715620577303,383.9319526071,491.436865413628,527.289557556081,500.637314115833,337.882386513484,408.50232245288,534.162834793313,593.325906350447,670.079105136944,771.149685521584,863.997179908264,934.558326619763,985.727157791595,1062.84434542205,1090.13705789646,939.391997287623,836.995477727713,1019.83385505794,1163.38021109117,1299.9665329524,1518.27544002625,1613.71902792725,1558.41640884579,1569.82443249663,1424.18370819264,1227.77075172912,1318.356480418,1370.34532542719,1151.63830552052,1054.18444808457,1000.08874737042,947.704248200205,1055.88691348459,1091.71892301382,976.283528323228,963.308755787176,1067.39971523599,1182.12744475309,1177.20061718426,1274.21845215918,1248.8222913943,1121.79646891861,1104.0296662652,1112.2599015161,980.975925591903,871.108953449469,847.317407821199,832.615265483303,939.72497863009,1094.30171364334,1287.99095635339,1423.25066799677,1580.48631581992,1726.19611225178,1795.9901446448,1758.54308704775,1663.33901361749,1596.29286779222,1513.75644822627,1484.13185460427,1441.28888990413,1369.02746471716,1296.23589030487,1108.4466905132,1010.94162133639,1111.76040876497,1077.34441717833,970.344952845705,908.232387013158,955.759227130354,1050.33669369355,1058.62582931214,1177.58279003585,1338.04327638076,1324.73127785453,1189.44532777292,1098.44145406483,1094.8886836258,1166.06844453939,1164.95741914701,1178.70681857272,1267.36647418463,1382.95351540836,1441.92308411892,1519.33355720153,1588.3788011364,1672.57918518826,1720.46974346991,1693.62349534404,1694.39952089406,1674.76397282755,1606.2284339299,1482.36004293102,1361.46684760948,1353.47217712445,1277.83052969718,1191.73414652975,1328.72374750319,1354.78434091377,1184.94849861514,1063.37019103427,979.429274952134,905.941665122314,938.553528359892,1028.16059072478,1149.33309755739,1302.4546617664,1280.84649957967,1271.58372727985,1096.52674815444,951.62787121759,971.822442256994,924.061327609049,891.609669246224,823.582760024581,695.865865380836,677.790533257846,661.082511722217,605.837399293096,595.759539105782,560.060970904728,610.615867880514,670.425542914849,602.481273673483,531.784478411433,464.328937262945,471.636838499649,478.774500639157,482.481751815632,470.665231525429,404.517270655506,388.885047228112,432.845654800772,477.884123563814,458.935563894814,452.647808923888,426.671373269312,397.825325674567
602.99530575531,733.713928219299,720.350137366326,653.889770912502,651.921221053331,697.171440670057,669.164122435975,695.459336102232,633.541328193525,606.309418469447,660.523612519876,681.774869372175,705.410705558743,730.229796752868,690.913386209493,624.734329107574,616.895743150531,599.789113599813,519.415075909228,401.738377014744,229.267551186356,100.953660887814,97.409429849702,191.966709363414,339.842857005648,232.647331460122,111.058812381558,135.13677850461,144.254832288796,181.073953189876,231.283778721605,289.283904003416,371.835464593349,423.147643279826,538.329811005487,702.145706704432,681.747151445548,540.728338357439,422.294619130935,365.075054710998,320.273261222023,267.731899107548,108.760520926584,164.916645054664,265.114301423245,295.405688443919,292.347312982414,242.159257091228,193.774848228194,219.121874013298,299.285190611946,406.651630887415,503.184590404178,462.642405159377,367.340273962065,299.745758506829,366.676068622187,490.035293822387,549.295948362861,625.79792776885,707.137652115907,756.344247586326,809.410146871807,869.77339879162,923.084960559412,882.338851807034,769.934574471055,748.481203444672,878.542660091962,995.969739205378,1171.41000480978,1400.09826328663,1591.00190652641,1615.71983339405,1591.90705469758,1448.43397033853,1388.5349194032,1474.11624292683,1415.99939155846,1265.7315467521,1198.1661580604,1085.87539639812,945.034444797502,966.830517686079,1081.23381909925,1070.84906237341,977.642815931336,1028.66721457942,1166.73190515869,1306.88403754949,1230.1195229413,1196.95300511074,1240.25488000436,1137.69959073781,1052.37553113542,1006.7299693063,910.781198382174,876.456600185708,834.750675150919,895.189841755062,976.443552086961,1116.72892125549,1274.53651465715,1419.06322972269,1528.61710001963,1677.21833983563,1804.15265959076,1780.25960229034,1719.6967414056,1671.67994637429,1625.92656326434,1510.40645449113,1455.98036174243,1322.48308984453,1147.1673155458,1050.85346106957,1178.69125163703,1181.46043909677,1060.51327219113,983.44526553246,922.915168502996,939.377567756877,961.124740682946,1054.10765249862,1163.12514794283,1255.06934799697,1203.09252043852,1087.73497306966,1073.85181952524,1111.87158193801,1150.34346646628,1234.1694371327,1310.27977545857,1345.64757015397,1343.51022249213,1445.85173084369,1598.2021010978,1677.83783646,1637.80414580769,1630.95698608519,1694.67751626055,1810.34020715061,1721.07804038999,1553.8179038617,1487.00914329389,1470.38303800972,1336.70881324319,1337.11067849734,1531.34011957928,1386.35529355956,1191.30593751565,1136.08177101932,1105.96844171163,965.616517999698,1006.56995726863,1187.04647310122,1213.52780544905,1371.31952890915,1343.34685169955,1135.36985462087,995.178994461532,904.320538745143,864.657987334137,804.934667588419,787.55025029321,758.193318076677,723.32421544315,801.588013909004,767.099592509238,634.194733822459,579.438072792092,558.015276155476,615.245942626009,662.414596153402,590.555347293486,568.298490058707,502.493305664703,490.180341759591,483.143897115912,463.211675574443,412.499879609845,432.619816673934,420.868436621295,412.700581202742,451.947702470712,438.008316571543,433.497658690027,406.609934287171,366.401434408281
437.62512558731,595.205918730427,621.855808456133,528.055568413045,605.662625727127,648.734041899118,739.428147575006,634.577178409949,525.087851538005,462.573151454779,543.751556090423,616.833978436054,675.325661927771,678.489695529481,589.980235208828,492.855918830791,502.572602790089,656.961055550713,670.088131494703,512.809178307978,338.978356093094,224.954364602904,283.298801213204,327.509931712231,427.73303210732,407.756640659708,247.747337598158,108.758622861179,62.7189040897878,138.044332785265,191.200355442779,223.31814454655,344.401811575894,396.856713405663,496.505193797987,580.121223155528,604.663948163735,589.251199189703,483.892477739576,427.922771458882,414.364796445683,311.660610874592,141.925810051489,107.577257604297,117.250416175591,121.978372890635,196.192687003223,258.244293033816,300.571620032034,377.45589321118,421.277715453601,457.761968035684,474.794841682469,382.464161754993,233.303743245889,245.325670869294,333.473974226648,428.072054939505,499.410970276234,548.753614470123,603.099492728152,666.394778518889,713.076071967467,746.615490741324,773.632713811007,681.120991413276,633.656476459469,839.308738735753,954.596605374153,1050.19528818286,1196.66025861523,1380.71291883439,1546.95564417506,1570.37666189962,1563.78551632733,1575.00083150384,1600.66902215118,1529.19860950589,1448.77527369402,1418.63594185279,1264.08178386021,1117.3205980168,947.140341305348,959.994934842329,1062.50430516227,1087.54802991361,981.915232874302,1025.17479177824,1112.44025508743,1125.90590580152,1088.28007060707,1026.56948865024,1148.93407592248,1129.68686288332,984.271067335088,912.736287268269,862.443026062991,844.147993533724,835.607425759614,874.681985747613,926.314268312157,1025.47914523913,1121.08831094549,1236.16138703199,1365.35456763491,1553.52680202549,1654.50981332345,1698.79962565335,1733.05381390881,1705.38618360204,1704.41801579149,1609.72217380017,1551.83891981166,1447.80061815391,1280.09282656441,1113.62619048579,1146.62292974852,1304.16722949113,1208.50725949073,1068.14412483856,962.112601086519,1017.24093451697,968.577025768552,943.809152095926,1006.80355356188,1086.15659970744,1114.53801048751,1029.87443762259,1041.80798426081,1103.13952539234,1186.98128350881,1220.87743854418,1273.17016411553,1250.24612145984,1351.35446122809,1492.46782647222,1585.0334536318,1561.54947623303,1479.05509307723,1511.47430878408,1604.88107158352,1714.66331694802,1739.62016383113,1683.96489082946,1650.25004197813,1541.87417194959,1394.01699861056,1489.03816984782,1567.78460949031,1422.85671299536,1315.04242099922,1259.62993263969,1134.77140159831,989.312806524446,1089.71488341396,1392.94109715455,1448.36734199114,1496.98033203327,1378.66350577408,1171.79459426758,1052.30783208661,914.558581431038,829.897600356801,771.551410099591,719.913776606119,738.385964272549,898.816434656596,934.815696661482,817.347699739064,698.521437390456,621.2024846649,573.549559589736,554.246282996081,637.953548852531,628.641832823239,584.073059614025,495.151085946233,445.275329148647,417.725751354717,413.504067295221,409.324505953128,458.792891843729,436.443368879775,392.157917541683,413.052395242166,436.696092468398,433.368151996326,401.885220888103,350.62973101002
370.219416682852,439.06765618483,430.747462499657,466.020982940929,537.594278091989,674.171519346999,746.63107886704,642.527538227083,520.021535324996,400.952300684584,383.333779472242,464.009901757656,520.574772171823,518.702475380456,500.415116592349,411.817923423962,416.399374410263,545.450669837459,635.091713142059,537.98785574167,352.27120893251,278.90547172873,386.169125595165,490.577199433941,539.558299347116,535.378771452049,360.796501023346,153.275014561134,58.3446275661372,152.900787203938,285.379068348338,335.814879784434,332.885346415722,293.499143339248,371.273075691805,422.973048549195,513.452969710465,507.303258469566,355.732313644782,290.833213789993,329.548791480566,307.032525324217,217.771427302688,111.300162206703,143.976459906231,116.450260179551,181.701256146649,375.846548959708,284.091885879289,333.877117217617,341.243460186028,318.572578826844,382.178170579831,301.625492385446,191.171900421296,222.202625377586,316.851555063436,375.723441134561,431.013431934087,482.141530376883,525.527933681602,578.242715493518,607.397104428009,618.625541723278,577.660676779064,503.385420493189,630.407304097152,878.138460596484,999.312785231304,1109.00848282006,1259.39174922888,1349.52112876721,1437.20554946818,1439.56814046844,1455.12860391242,1543.46384398137,1602.91663690651,1428.57592383876,1259.58057583201,1268.3854121913,1168.09005069748,1049.60031943376,931.302743152479,940.605670034015,1038.07385109987,973.921342241088,896.592474457826,919.321802035941,1043.80400315328,1005.64631792633,927.022339367315,947.451033437891,1064.80121182489,1072.0351131887,971.981815514309,933.223294520113,936.437919633978,918.388140655749,847.478481335316,865.874686389648,936.201573816271,960.493513724314,1021.11382963903,1148.07962801567,1320.50331024044,1421.26185370188,1456.10137450944,1505.61308508786,1524.72099233355,1504.44522486951,1562.14353784995,1623.94786164176,1580.09878163185,1472.77310347905,1379.95965080915,1211.84186214922,1125.23009719577,1289.8157015874,1292.39838127218,1117.38306933868,997.694940722946,1159.9844010003,1149.7632065046,1012.06161752489,959.638239928793,938.034564823655,967.873522278344,975.311622965007,999.447298439671,1005.03369074994,1041.33613903121,1088.02536017364,1160.90558737977,1196.97130859224,1327.73850708644,1436.97376347408,1410.15570541046,1433.01803288476,1391.73496176488,1385.84886481636,1488.8082293294,1549.77056627291,1553.7785586883,1611.25092261123,1665.69506550635,1627.5989946395,1519.03567727901,1618.23603533704,1564.77343064417,1491.35115987053,1412.27177607403,1306.80249652034,1143.01142921624,1041.21073899612,1113.83272844132,1320.35251336507,1498.7005673681,1560.82672529619,1417.2326840378,1268.8155829021,1087.9458939369,916.984184162605,813.092883567258,785.505277894911,783.096208229878,903.711043190295,977.995430101892,886.588772296634,758.697493869446,675.438790929262,663.197591522808,652.949911899745,590.307670920314,556.133321565168,568.99157559049,518.584875222124,489.294463406795,472.973035255757,458.57243587284,438.966363039181,414.018971958811,425.812759428802,415.286849453744,409.587476785258,389.752519488214,369.849946015132,363.62285802817,349.522446585658,298.254127074287
303.738943927792,329.149244057856,404.056190778342,422.432345150427,529.980480855525,693.187905163321,659.510219450773,572.265120592858,426.254225250529,395.178286950694,397.54092493408,359.539619808364,399.54076510912,374.984577267867,383.024273338092,396.931353395045,333.951104141024,426.84269119722,539.299117830158,484.658429882773,358.7302903958,261.230880474928,268.814108068145,408.704798714616,484.438039801496,460.656142201191,317.403242757207,120.620420507689,66.3384910072662,128.480942126389,276.400612158607,385.731611352199,269.532243693661,235.067998511559,248.14252328596,290.035498057044,437.744900716528,517.68065575592,408.094950810259,302.175382956329,211.128793271892,198.873170987141,157.211086434773,228.229046210665,224.704143013077,124.299295386026,136.902238395667,193.3661232253,113.579172888453,149.022292415914,183.043131882843,258.048427911994,291.922296715284,181.261862525473,134.263968445697,192.777241153351,272.140250969318,319.830400036415,366.311938928543,411.771361471749,478.674175674831,512.68226349481,508.619606442239,481.006448727058,436.819045123335,471.0253767117,664.387365305393,795.938150811101,914.951713734976,1084.42877323093,1250.06388681037,1292.50889887478,1308.17831026102,1317.05157535301,1305.03411242324,1350.0828033562,1477.03208085521,1496.89040029329,1371.6361594328,1187.86767175745,1135.97139056578,1046.22549550817,955.770946728147,886.996473201706,978.080912512048,956.655615745992,841.555785222561,851.019756337525,974.621666503926,1036.56210103558,916.281420135602,903.900117145608,1003.02796571008,1091.04425384279,980.78529971537,992.794662861217,1095.70613747304,1006.00849479512,887.311848504456,834.754400884379,905.364587438168,1011.83072244346,1024.95693690012,1115.39699769687,1282.43870535691,1264.26703072209,1248.45023163246,1327.79964237913,1276.4240890548,1260.52516220661,1351.28573142443,1455.86433923746,1412.51743506146,1330.00948354285,1258.96543976718,1178.18553682585,1137.82772987906,1170.84531542023,1264.7354791131,1138.58779466667,1026.02967007831,1212.11207570523,1269.60191178796,1167.99471236787,1127.91288442696,1017.86442880372,993.388846295246,1068.56830179522,1121.82005980907,1080.81621071539,998.371467489363,995.665047110301,1061.67714659812,1169.22344599338,1281.50507873214,1353.30752539615,1268.8162159892,1317.6261310174,1285.07186126918,1255.68245937717,1381.47743536324,1425.96876402694,1468.54337999713,1528.97001564021,1522.52823174146,1622.39686753621,1646.53041661714,1549.18959863205,1398.46397960879,1317.43302574011,1240.17126228531,1170.92081189417,1104.27296262729,1174.15967108727,1287.57701914796,1316.67487778636,1395.46208589689,1403.66604174556,1320.51801028423,1148.09996302936,984.848368802573,904.654066200903,913.361468294019,899.414350459372,846.011065563118,938.146081620531,1025.26160235587,908.773045396609,789.982774163475,706.870255855721,694.91361858789,706.790883385265,662.377788678395,604.845096794565,516.386786374738,513.444876723829,561.738199687704,539.213005698694,464.742114559824,417.360972083576,393.087327666239,379.458386302045,373.002790735244,354.894157068429,357.941636313952,326.390977254574,321.077613481524,328.536619479429,330.999812845226
244.645334850421,409.051976631575,571.872690828134,512.687170094798,563.316263208302,678.66350341192,634.641375416071,496.699968471809,441.641926067461,527.864797602268,497.113094982295,373.071457659183,325.845986729207,335.371390205088,315.127835301885,291.67777280564,263.618660659419,353.399766775035,435.839534990746,476.153311064011,441.011581346979,346.114103394127,198.015240125035,254.429908391229,320.862865763156,307.322079859967,194.743084070729,104.657547022225,84.5096213919019,154.033274060614,254.846248811049,320.18495403325,266.32997780485,191.440502888274,197.805940235785,279.528774196537,443.743149682797,569.970244714258,486.742701084342,309.175153420551,308.509555447975,343.529814652042,212.048636365877,252.976805454563,257.518908783443,190.525097753391,258.115755040689,211.136703767854,161.641164792632,136.131234584112,109.771714663455,181.439182147556,173.660517370582,117.27752640717,128.544601914385,140.781257974369,152.551693526938,215.516044104696,287.596398509303,359.083525382927,422.016826907479,410.861791850933,372.569367178477,354.638492168683,380.866009980356,524.162379196605,684.07043306096,850.618125919029,1014.75777817473,1142.95452471066,1213.73078519228,1242.60137129027,1257.21023042333,1241.80073749716,1225.28435634803,1255.73310238264,1385.23757617048,1460.60185386754,1444.33589062861,1284.08337061649,1262.91354789914,1173.88284105042,1059.67328194932,889.046269864795,866.443687485199,970.71636051622,873.464352092906,811.56903070405,912.452771180269,1053.18245157527,1010.36490114541,872.475965897614,911.307770772553,1041.99118830236,1060.63113227365,1121.26237077063,1157.17666724698,1031.14827400781,940.359233728675,860.307066279302,857.025560025824,905.731190143969,980.944146633162,1106.2774505354,1248.3493572522,1161.97141764638,1134.8559175366,1221.03039882145,1129.69061432993,1100.63718799322,1174.76300063716,1316.19196226991,1314.41353203669,1237.64629712944,1199.55888207224,1212.86536075843,1239.53933257661,1209.1640713373,1211.50480945164,1082.2692806256,1009.84961784616,1112.5866903319,1252.06496777122,1301.10295533805,1261.14057121432,1146.23790502881,1003.32125033206,1119.82734694318,1273.47864462826,1228.63308080878,1155.37905895077,1101.03354349443,1056.61019334574,1139.60026203781,1243.4125048705,1246.95472278078,1144.13488059412,1164.22385782148,1170.17699944868,1263.59836770779,1386.88724295663,1359.99807383583,1353.74052714795,1396.97819083879,1434.40221109356,1569.23742883603,1581.98336719211,1470.96866789486,1336.88978564378,1247.95870941332,1216.17074640913,1187.49479457882,1192.62338192851,1286.56278520143,1412.84705557894,1449.7347951197,1449.49062821985,1332.920858383,1212.70424365856,1136.40936560117,1059.77407930495,970.32108941842,1085.96944107459,1068.67688400328,1019.38460249441,1160.02715922586,1093.26901713371,1003.47523386491,920.092368672519,815.980600315267,795.758054177249,802.878128181458,727.837362669657,670.893555791331,587.837594680034,553.63453833162,563.070487986928,575.570458934247,513.702225615937,442.720365136891,419.276029081494,394.515235590364,373.876914099155,332.273130409758,378.672931093948,371.58829613012,330.400106907666,375.04043332536,382.291994814528
295.522513219665,419.928884001216,574.021782993547,646.202086890221,717.085440644321,761.987329624315,707.116582800248,569.783518232934,488.26517552289,575.609243286917,564.778705897838,451.097234691009,412.714784717811,438.372576101826,425.159007491351,361.511131443462,252.215927527325,255.25128536235,351.657028032046,371.051318260974,376.465374818287,276.999674686589,145.35415185936,124.44007650747,154.975546997301,126.939686868418,154.331606447811,194.154316046397,83.5105955770917,196.539352692819,255.890646281421,192.85191769737,203.179360158787,205.048254541006,290.973177779509,382.268719897888,497.536805336398,593.250436769735,481.419740140838,354.045103598528,427.190879617564,467.131361734748,292.556096381744,317.385231051742,349.454228526808,324.272108130101,442.513597575321,411.342304663989,307.779185939983,228.681073206172,135.483499638413,102.982996765002,115.073071500998,126.179509501089,192.456803822916,220.252462644857,180.268018498333,178.532308271471,195.217029053632,269.063143651208,299.528367588385,272.944857221265,272.258765820704,315.756482361663,412.401953334474,563.115023795124,742.248015195936,939.067456923182,1079.51789771604,1043.6079591728,1111.67760977222,1201.70146062488,1154.11863432445,1128.1828583765,1120.98754165419,1197.76942783849,1288.59933019788,1350.18182826923,1416.02255916223,1456.48543419956,1436.910441479,1292.87256652602,1144.23290971133,983.336976636124,824.500723316628,884.072189353996,891.489769491469,795.432557752027,865.327994430572,998.493582940665,1075.94827007641,917.318210296322,836.810054235375,912.797259764554,1042.92108180148,1207.51377053603,1177.10922919735,1055.61377662981,949.908111401086,880.212913918022,849.221759460726,883.856721596181,1020.74392072432,1059.58832506312,1173.10276905494,1100.78253737076,1094.54369273708,1108.26426798315,1021.75461719559,1050.46608449834,1128.11688690483,1252.76358967202,1311.86623569425,1278.64405577518,1327.31656444217,1352.98824968929,1370.18133406716,1289.81075985323,1260.87957753627,1157.26260119113,1073.83082728328,1092.08199606472,1112.1530963944,1194.52796444313,1240.15792607105,1124.21009085489,1005.07069757404,1074.18125297536,1275.30119943099,1376.47111193883,1341.9723906718,1289.30224223097,1161.65161953943,1069.96967619414,1079.92030087029,1101.77807416274,1117.68917435613,1189.83506239324,1211.29563356032,1221.89919444038,1260.79291165486,1311.68649294987,1430.71705245065,1501.80450970951,1480.27172442016,1542.24695876249,1535.93356650305,1436.06311138365,1314.55452990974,1383.60267187919,1495.03532237349,1441.65607287626,1329.31585136819,1386.00070127217,1499.5907308336,1570.54649104859,1524.95510396758,1414.10072502258,1308.71313730903,1241.67857528815,1132.32746945754,1096.10004656651,1110.13558497419,1227.75488161449,1236.71052492142,1265.47445798647,1080.51245657285,942.13596737024,943.242100771675,872.094162603655,778.887993803235,742.167050458721,726.193898264377,657.459654442191,595.189032510176,550.931514190722,528.2114356653,525.610538967411,518.203932383373,446.57971555877,400.368508030765,391.618103668388,394.917990017102,386.173521464463,367.217506646732,356.616726975793,329.848159209679,413.286753700614,415.852243319919
422.296755077785,403.505025051665,444.79552938602,609.287529668447,808.967300248254,867.011345773435,773.450221607359,674.619012239393,591.375984220338,642.036079308093,685.900575983334,604.897279112622,552.781906019375,567.110098353084,526.812284632144,430.218042859632,275.661632237701,190.226836025416,226.915991255355,250.163234642858,250.147707590045,170.141096074943,101.13709553356,160.405750958412,244.593107431586,168.89619967364,169.399078823945,249.477828862384,124.545706968696,123.057740201316,192.80029179126,123.035824236323,119.576855752308,140.098693025794,203.300085205341,318.754432942882,474.903531431132,610.325663194609,571.466672169154,496.257577031015,571.54976195255,548.105077192036,433.392895336389,404.748966540469,493.247832581667,488.332703903131,529.000636081728,501.09358416761,385.806791710575,278.895895614092,281.449661378498,249.902948306682,183.677365614405,102.555608385403,98.0102836117049,164.206012536596,278.853038089502,385.034613937952,252.138130053903,176.191460692128,192.882244293997,215.262614310431,288.228479905068,377.405841706961,449.705686698245,573.480830280621,739.252837753708,898.762029217165,962.65452835294,945.170317447315,989.88885485365,979.907080859402,958.027604473674,921.982199963786,1001.49551019144,1116.46108552091,1208.95111396538,1299.24315380236,1372.0244048214,1427.5855559545,1438.18670717142,1302.66553918512,1132.08173240379,968.794456222216,848.214701365994,795.038190417663,846.542622713509,816.726552315714,770.228716686369,889.875625828674,955.087352431353,923.344747080478,825.241676618512,880.132116025335,981.636933784638,1099.46548776539,1076.59222235579,1002.55091233813,972.598897138666,912.784363768357,854.968382851768,877.435558590333,931.660576463195,986.887841352312,1153.37541334539,1110.33736431988,1023.24559310554,999.591669088221,1047.91979873259,1171.91031292964,1207.85032445707,1219.89791443754,1240.14367911685,1184.90929753182,1257.01590924682,1248.49614060312,1322.15935117101,1361.18695723001,1335.20870219628,1178.81790680009,1159.42551555832,1202.03462033347,1201.37172645551,1222.71204810283,1250.99011484814,1136.58265573333,1061.36363571575,999.869695687148,1165.12811364582,1359.56098872607,1446.28678844547,1352.02309920488,1221.11338268173,1155.74302913035,1166.59673412598,1280.71762377368,1328.36290669182,1381.56441109038,1403.51971130327,1415.22095497773,1419.68935886478,1498.94881703928,1553.08573393906,1582.2387062632,1583.60755468351,1702.42516211509,1661.20605363755,1514.24715770851,1375.96771660895,1393.12083739103,1582.44359754136,1631.02052345333,1518.17266355699,1485.71203457423,1627.82829518143,1657.41526394127,1564.03882687498,1462.1057932035,1373.8060575511,1300.6021139723,1306.8652060458,1404.52596615412,1319.98492295614,1339.23363253249,1359.10617797973,1229.77390039559,1118.39401837597,942.347790734407,826.539650102077,787.843441750162,717.831323661455,631.655193339532,664.454521651756,658.201851640416,595.942449682365,546.853359772343,503.287588552777,486.170751923717,470.415874877142,439.739771884221,477.403594916699,429.563359429624,446.338865640249,424.863640258419,357.062065599834,389.578203188142,348.199908214684,411.260422678331,436.850936519558
315.645654910497,318.545601928948,416.768723376722,537.459600653716,699.372731865883,765.494699307285,724.328902834319,761.294548017001,744.349731044252,664.004229030513,662.362165706754,672.346669401305,714.214995844837,650.499019919999,513.836187275049,407.801626921984,322.651156906066,274.836394719666,202.543470808049,153.802380895334,173.698195115444,223.067423668629,204.568924200549,225.369244174474,238.790878929555,212.23812637714,221.156971568544,301.44655574175,185.303932990277,112.050693042936,124.083022874381,181.430081639861,160.554420136081,66.8803548840717,127.385827771102,289.843880501349,436.669596379843,513.152398712278,604.16045705113,653.483755697215,721.927635245913,686.776341423192,600.332637404763,447.570539704624,570.848438010509,655.488148811286,645.487956185966,582.235373096909,458.075679168658,413.075223757066,469.610219778148,407.239768218334,281.984548921621,176.869986944194,106.830314087951,102.896933941936,219.749193365365,365.214282334135,388.718342331041,230.102312961386,180.588459540708,285.94468493015,362.033607374276,418.609628829128,488.838128799649,609.547606964959,772.68673408625,876.162037437274,822.778506277234,831.170460456443,907.172198223952,810.795902873471,755.450765622486,752.121947634688,884.206369561791,1007.19556898298,1182.6412898969,1270.12252707817,1301.9110643781,1291.74425436435,1272.47479356044,1153.27535930531,1001.61421005202,886.342382416487,883.689661391317,881.414340525792,766.98930122551,751.330901414391,732.152098062071,731.374905424033,844.964419500015,881.988081399756,828.926767180363,845.981626875153,945.059106129021,1093.41464796671,1128.57055335343,1122.49272182099,1074.05783146048,986.833399445532,884.147936016049,877.649334567145,931.886119236539,1028.63843384317,1146.10107398707,1070.38427509061,965.997180262102,979.59026235073,1034.7498942538,1061.32136098085,1141.11976318332,1133.80965237908,1191.11896161548,1129.70915642818,1138.31506331004,1129.41994624051,1194.75757868292,1266.49454578255,1378.63839524853,1272.27419705098,1244.63606590941,1298.64805984743,1308.60996847204,1340.1066151648,1349.03021911524,1262.06308388575,1171.24881846816,1009.85241627627,1054.20591581184,1200.66653040997,1359.35875732021,1435.2038138752,1351.80685624933,1238.995647158,1277.09950882119,1380.8152007063,1489.05268331144,1548.96418339594,1620.00604489936,1675.94990163689,1721.62960377158,1795.30366343664,1770.37423270944,1665.88116567562,1651.48385335847,1789.69031326112,1731.38738197703,1578.73214124682,1500.91150922,1427.44782389423,1493.93440612939,1678.07448992157,1702.27649876322,1631.63266686123,1719.76680765415,1723.34113832147,1605.04550454709,1522.20326299082,1517.07087067234,1428.82188725133,1390.28418340612,1458.78718527357,1331.16605637339,1242.51639805044,1290.19577343942,1187.71628788449,1101.36466981581,1000.16813613885,870.012318694199,831.673275956931,772.323906001293,675.398472248181,584.202501274734,581.861630529005,614.171656082105,593.320535043981,520.291171872078,474.902918638383,442.218064659306,471.407558968579,515.284264819722,497.101657716313,468.572980432882,471.346854196846,385.883236217984,374.691439363896,360.713619163154,386.678386875111,429.633638488396
414.094268678123,402.859347693891,387.765858746018,460.871348093303,552.545025719336,635.137063024918,560.499304225097,632.678022298089,724.549673525353,570.786688206507,484.420560645973,558.594118430426,684.592692022085,679.401521875616,563.33956334154,464.344870994766,464.481289083772,369.23815633272,219.04366746346,180.03435098877,322.48780032583,421.294546590184,400.895265110634,409.069587568002,327.089863668716,244.844636180345,285.02164760738,251.54806363435,167.667926328193,205.971839728268,317.9668964793,359.21478551305,245.225973722375,82.3764694142863,157.668904198136,261.714101952788,270.948911277613,415.017421533011,605.821018091268,724.064334593932,711.700835441363,737.221538661955,667.913783237734,594.739940748108,681.132934149897,799.860247436065,719.51512983663,627.873893116696,534.671996109223,483.608827469953,467.259675748859,370.938201767462,326.396813122402,222.175335985659,100.559302817114,99.3294798254094,222.520202197209,344.624519154542,381.235445890512,254.989540404987,186.382657806332,281.448376713278,316.598744718355,426.692547226541,555.307735133798,648.652767205153,766.543718598658,858.337036864635,751.278345389741,677.919376156891,718.114809582894,657.142184225148,621.809105536483,722.113015787251,858.168643328725,1002.28459812063,1168.56590782989,1220.18483295491,1239.07262261317,1232.34298035694,1177.85132031755,1074.56456359528,989.348400199162,1029.45441029138,1043.59588445296,954.161089459274,826.621611593446,727.867019644804,741.01514032291,710.694939676505,763.692414532871,780.522932534829,754.537322957606,880.142916734067,964.765715803622,1103.99074999759,1104.07446334066,1017.50112544369,986.052347584759,1020.14561975408,915.791257670936,848.879376649933,892.22530933918,957.238821421511,1085.31576572057,1029.02069748143,929.831695700589,1010.56773393601,1128.57204203194,1131.28185818113,1163.97832308729,1095.28251332235,1058.1666651362,1045.15995996285,1087.71966341695,1197.62979980423,1286.39389262509,1338.67638067412,1480.3289009075,1485.78473123657,1418.10752325314,1443.19035808828,1447.35603328691,1359.54642492599,1222.27349191768,1151.17592108823,1100.7657170587,1069.34608795242,1010.02705125783,1116.41631787275,1273.31703785679,1393.02253248349,1381.91459338522,1408.54423063136,1465.69353192347,1435.7364276709,1585.10067956569,1796.7568620204,1896.20590637836,1934.32827314247,2044.68830467555,2096.57816124785,1969.95705989073,1822.1246515834,1767.11315338147,1872.90206654276,1840.80716458282,1763.2282386335,1668.81025503593,1551.20686613075,1588.37757826036,1606.82857321072,1710.73045772986,1801.79791090355,1844.55482910646,1775.00370123361,1694.33603005485,1667.42852551972,1680.79563803963,1634.37837235046,1575.07587973401,1525.5131066085,1383.37498356757,1266.38499757568,1196.27696799981,1156.01600730269,1008.18157398381,991.406857940772,905.067473870464,825.952773488703,818.415407940905,755.440568240876,643.11939138092,618.771872129064,550.368271859196,542.152609892605,503.7707104052,500.079753224632,478.38038628108,492.651640882823,536.321187159271,534.443879186736,501.606843252604,465.641382203513,444.035690772726,372.801615980208,393.947615387401,431.479961446858,435.544764658272
409.472863663182,504.322840529948,534.405660226075,548.461075532153,530.233851054752,479.663727762498,454.265844182937,595.859091582442,632.423003385724,512.966728430303,409.465144463357,501.243591343148,613.969896652226,686.585321213235,607.491553306464,509.836406477378,456.686774870611,372.119248130632,264.936404604119,208.691085896881,313.823017180787,417.566897583019,498.353504936181,559.88866247651,507.116727818364,389.135851778233,325.848519811042,240.956061152078,313.90873437924,249.246701468953,332.478676028949,407.555115250814,262.580668918456,129.875860821329,103.392155613117,146.102229451017,251.41674144095,407.36789611701,603.100052434568,623.148180376414,569.61875851287,658.42433727249,738.909770554837,764.875434430114,825.395403131295,848.469587607586,717.674308247661,614.084958365059,516.989461723321,410.853398253154,304.118541388726,223.292375587401,191.042375450711,142.347836623389,131.728735117079,143.12240640097,240.375299034283,329.999407933336,388.938503019991,314.442968244644,198.56370341023,245.201963628657,329.130890847718,435.194378078253,513.067374694052,564.887684188711,658.484016519221,793.642389671069,783.392053397845,606.515616460378,526.123089533996,529.882747915242,661.141244236635,818.207559072554,868.553608264124,970.079441472562,1093.33621998074,1128.33604815078,1199.69285211381,1220.33347818332,1205.44149132973,1174.24519072258,1134.81951117761,1200.51590801064,1048.69571480111,877.366118220506,796.772616399251,802.473946729229,835.228274057631,811.81067545182,685.085932668442,666.02213167266,779.190699754374,857.41913954272,905.383336211475,1012.63648995266,1117.60746437984,1014.82071576297,912.7861817775,910.132860317273,910.123643205985,906.1663385757,861.559860383553,923.586472093607,999.870806570788,1074.60265405846,937.132023146459,1029.5081113696,1122.32410177205,1151.13934675057,1172.1184821617,1143.51593958091,1057.22671229774,1023.90008200561,1143.85551653804,1215.51383256306,1247.23903828775,1280.29006049722,1357.97177458271,1445.78224121052,1457.38001675163,1493.8882796916,1520.14741096232,1361.15903596412,1232.68563697708,1211.15498715046,1200.24819878534,1217.91428427172,1108.00239440818,1031.89465819809,1172.42948826055,1234.68374590901,1312.87556227772,1482.92482995126,1609.42644382562,1683.05023825718,1761.15518916648,1934.55066750299,2087.71250183315,2134.74380251977,2172.58957124157,2268.19066703637,2121.35864438965,1962.15010792754,1885.73414314455,1955.66794291122,2081.65537423679,2015.47275318465,1865.58798340576,1762.35050817359,1810.58036015642,1683.60630014648,1747.48674721112,1774.9513245628,1783.86916279098,1701.27330135208,1652.22825395501,1717.93336624433,1665.94232923727,1555.72553342577,1534.62392958152,1542.47934823816,1410.5614806316,1295.84477852449,1161.82580084092,1173.10783557457,1031.7092160389,958.90775954327,987.606829848947,857.830599660937,744.118038131906,740.593851091204,722.028470230848,712.477070892299,593.731437941274,562.285060786748,549.177170838856,570.088490541936,552.626341219716,509.259181252132,514.779120820407,500.510983966564,479.442300716316,469.078975570048,449.43931068878,405.376641201759,440.554841664917,458.196602321804,399.239592202857
267.179094939498,375.074926310473,524.500687112823,527.856500715613,456.932207181896,374.756132505466,481.265610412684,545.454888571186,508.595412562596,523.71398192872,389.330510811439,414.565759466853,520.389947107063,682.459004378946,682.484399546866,586.219773668285,539.774830732708,448.5066587198,354.276192708504,274.625009458204,214.617576457402,262.427967436115,360.972114390018,440.571978209454,521.747887147786,514.740838359704,379.464370759633,336.85203479514,464.131560818964,357.813087343645,317.14792421419,412.193184586869,316.594195311468,261.252027436102,165.367289299442,107.611224436212,162.005766557174,268.244351172879,423.386224321191,443.357985021868,428.234898521575,534.732392551655,618.971539194965,710.19433100086,842.331093471319,875.063865255087,746.981439292565,635.869921145882,536.847669602253,424.272844698156,329.264570064229,251.478944635289,114.402629259985,208.334711556704,350.434827123078,269.64781581846,222.467571246028,296.803665445066,419.083482620728,369.466120294105,221.448422237998,259.794192449564,387.445965671111,385.139431909359,392.740542198925,441.529831122588,522.851552375223,694.022491994126,743.607011866636,610.760823900291,445.836529238124,568.332976282057,749.640691429456,801.247569617862,801.985514830861,909.756251480434,976.636868682634,1033.69918752017,1135.07658270258,1182.56306210295,1176.3863243894,1103.20440489713,1100.80234325181,1112.56323694416,971.417023905298,849.26815939362,832.460445521524,856.866599409763,832.378849930386,826.043517200981,747.313662856577,658.277792727263,741.31681481112,836.087035330268,883.96084098563,913.66004825744,1061.76867224649,1064.17865239606,981.276544994176,941.680035921902,933.900525969737,962.121688602327,949.588188567689,879.225160026572,942.794098688019,996.671226083399,927.269497965444,992.822125623651,988.384041729384,1014.27056597181,1112.98479931947,1186.28355624942,1090.08671843481,1007.64762101029,1119.22112478533,1176.96642725525,1140.74820240509,1157.03316916333,1252.72647227279,1396.62488242217,1375.26493370265,1390.84214744628,1445.97233572002,1388.82380161412,1278.74790780196,1323.82980672871,1309.73123220718,1268.32943951156,1124.86000402714,1007.33288926194,1080.90197882602,1182.29712560145,1289.7380281231,1354.80293035127,1483.34118043397,1658.19686521567,1711.93280461655,1763.12069561103,1913.84999361478,1963.96957029593,1949.10407468968,2040.32777918135,2103.79066151175,2134.598299201,2076.76837840176,2060.40329536278,2249.85559848952,2248.52590301798,2038.48429808853,1944.58990590461,1935.27701588578,1880.89968753729,1863.24658317447,1708.89564648931,1592.76729465533,1529.42222109771,1508.23340960901,1559.77225604309,1615.13078577464,1537.99923343091,1460.11097769687,1496.62490070862,1314.40831352146,1277.28925221398,1143.8923608231,1165.81583991263,1072.07645537336,914.914309343106,957.573932111796,946.555198400126,807.593193264457,690.051842216099,721.090333514942,756.136357817599,705.511132387925,693.481033583306,667.280927795158,666.762657785311,622.1566763687,575.560098497314,548.064073752329,516.624588936231,482.475018864117,434.178015887341,390.922140300755,401.361376689503,480.817095627735,464.459939640551,410.433724958586
240.214112582294,327.881438228044,450.109556440039,419.837963531447,355.033177082965,416.761757955349,486.916136003171,524.697974528934,419.654920193932,389.32513095342,369.59406732499,420.992578393227,563.632113513253,764.73659239761,751.217826386781,623.248651032443,511.391469678272,433.733412347181,379.179993224331,352.55720320671,234.19134760896,263.907784691661,321.672155040753,382.804144593769,473.322737974602,520.796714447449,417.286424145578,434.111969910481,567.641503713849,452.387746927338,406.284390082853,503.255800025325,468.095427629946,389.05703907361,334.425810571348,199.220234650714,101.82456696529,186.4048306819,236.943435783867,274.347754020327,306.968068746839,420.221530821567,566.790414242874,708.452391758113,840.565587380659,908.879136321774,799.732247274176,716.439381522925,632.311449904302,538.610163053128,444.10607679259,301.099893210039,131.226581723342,247.682672422949,456.100356640981,422.801302026509,363.26970472023,364.121642800182,446.106790051454,431.02694826222,293.678288257913,216.374961274065,249.878993322028,244.907345242433,262.115352574772,291.053929572754,336.851012525272,403.850973684487,476.187615528245,494.856467352802,446.122234546913,619.583834732736,704.923936344832,681.385976961382,735.796019465756,838.166115469232,880.837170607632,962.277849193101,1074.08581276033,1138.04210952903,1123.15724764718,1075.87509684658,990.706481540849,919.161419287225,867.519293869562,909.785718999168,888.585761304959,858.172464371885,828.220766267854,780.819242460315,753.477765542733,663.324072141591,758.140079402485,816.142177735815,849.217403558237,865.831701607469,990.297978084045,1048.42539408348,973.065543606952,1013.64611525823,1009.93700838876,1030.67187027534,979.650388486855,942.296193318082,930.501888817853,881.698876377215,891.187928913163,911.841911293368,935.568214088084,974.477461681702,1014.58224930684,1154.7172117147,1156.48205752751,1026.355597377,1043.66788438459,1058.14498483524,1062.34834413288,1163.42957844963,1241.15104899517,1404.90670272783,1368.81095990411,1346.81148678419,1473.4657214946,1384.51438026478,1223.28244875113,1177.02752167279,1168.26971033013,1141.47705004653,1077.23767768584,1039.31562924448,1042.41527548522,1096.20881288567,1199.10898533627,1296.95591645055,1407.18476040026,1444.90460292325,1465.56045103547,1524.62864712455,1679.40655208521,1652.76763360125,1680.70022600976,1752.40887330017,1886.04403217862,2027.62886482048,2084.75899201922,2182.6371651794,2310.47943309804,2210.46957340916,2079.12415662275,2110.99268506611,2066.29237404846,2082.52566840921,1988.89183549869,1800.25446651369,1624.50596513613,1576.76939073977,1484.67221754824,1421.81249940108,1410.2377390373,1397.36743524853,1352.95293702041,1299.2745449795,1195.31814963132,1140.11053754891,1099.41744644424,1059.67863733488,1036.60188057968,873.328304435934,913.049919834869,908.504512374928,788.548820247791,743.541521766894,674.402598301685,694.16757469464,694.839915269055,702.927208995485,702.181321322794,682.572946822817,669.587066485877,639.457462663314,619.393729858157,588.566524044693,515.914668805478,453.622997694247,429.382705631689,385.823883975356,452.460889032319,470.306226717138,404.564008338772
274.734312296374,238.894306660318,362.459288672654,344.383324595549,395.266552266106,526.267514609755,559.753668251323,509.64196844385,397.744390724872,330.844114096083,475.707617637191,511.951339328913,572.106183279146,749.344285828214,704.789028733753,532.624918923832,406.484011871084,322.359943599393,303.686601368358,314.766925240441,237.879534921944,329.897788354475,440.351737384936,416.379393612565,448.738809002948,561.106381546122,612.639110273451,593.213394706777,637.134175794382,562.809899983205,519.820416326947,486.749707409039,470.517683445908,394.38979446824,319.81174062083,180.17225148418,128.394930690392,223.907978430263,271.205923889117,262.643578022068,301.743341323606,423.067536191932,561.228043447386,699.47804856603,825.570211560613,944.372319414742,904.607486617279,809.789461651808,732.427873431136,674.553127204162,592.403724727312,418.522811367072,253.192017659465,152.529620827226,250.016070937229,364.017054502263,358.792494830001,320.023873566504,296.693791425431,310.574015984163,311.294151484004,280.646125546554,273.524203141638,308.209583020417,310.030086407042,372.888723600091,453.602123396057,445.306529846284,379.840155746523,366.698963038132,394.282886539724,452.472045549671,497.376260143418,568.508526803325,689.285756373087,795.672974887914,882.938792666158,984.602571010452,1040.86851493432,1084.44714500796,1079.47799730683,1090.75133554155,1006.87234483447,968.069217757898,980.111059236401,968.663298416627,935.592497259591,886.445982656066,792.367712628436,713.470819455756,689.142726087918,693.477737262045,762.10847838769,804.942084794944,824.965622935686,826.722333744643,924.040336565329,924.899386612356,887.008562200357,1011.51856688071,1081.30369038254,1113.46211453361,983.695780336619,1043.58164204418,1055.98848443763,940.493783187742,903.784063286849,896.695575546099,902.785822629499,925.715873275407,993.732397765666,1133.85670970202,1098.69752663306,1001.28914313923,1018.42537383823,1075.3051735368,1065.40305942442,1126.70055404075,1243.46807863489,1375.53534120143,1300.96492795619,1351.02165437725,1501.94447530129,1382.54154006237,1233.27114558043,1180.71901229215,1151.62314979443,1123.04284613513,1130.90548992078,1084.71038719047,1143.21141971167,1090.06111992381,1073.63939549074,1129.03953404536,1259.58945447093,1266.85946796266,1351.17813822976,1475.05880112117,1594.1794450469,1511.46381718398,1482.12888461053,1584.47391745446,1686.74086050308,1790.64705356503,1860.27008752348,2014.46080638126,2211.52530520506,2225.33618657895,2174.11081484089,2231.1342721573,2203.55754469091,2181.41486103083,2057.49769720638,1894.4580627475,1774.59074570577,1726.03001358647,1627.07916984533,1490.72141339763,1351.03778201075,1336.40651200468,1291.37687384504,1259.39690727026,1242.66104818602,1141.153491011,1118.69596544892,1040.28067429991,942.420147707933,868.973238105667,776.056233923704,776.70812380114,704.574760870363,676.003447696988,629.948104935203,611.80430154314,624.145506445456,617.801470583884,662.652573729949,643.869012148066,638.737646385394,640.269181248757,626.808987855347,600.78508237963,557.810566031256,514.781844334443,497.58044627103,439.235036799928,409.789758856515,440.440958982848,429.141852679691
353.657525057413,236.807962896136,300.192581008565,289.678346883296,371.578878841908,474.22984479118,538.719006239941,479.875337099445,369.260416068065,313.309715620951,418.733050284408,502.793162213458,547.278629014736,656.334526238869,688.418841337354,588.368968520714,470.231147562912,405.204098841706,332.639506787657,239.51335922054,259.446474303038,349.240947781637,384.313767291894,363.38814198871,414.965960924657,554.232465223103,701.563665666454,684.517138873198,624.818386161061,584.177976316221,442.24057835356,346.994797811456,313.149578700055,253.014686068918,167.307748185009,133.645666352083,240.219060601823,325.250392079081,316.334842587989,348.977942580541,366.499038312186,401.351082514371,514.537348215718,668.374300895479,831.394623715973,960.429436211064,919.473014192841,791.876303671548,696.487698034273,627.473420206861,531.359252230829,473.200301851572,288.542158720922,144.641057709119,207.739631471948,297.288424108022,253.902143819385,156.399997006836,130.064134032404,164.859721998147,195.852503635258,236.963019146885,273.891181839674,375.258507067867,452.808549313497,513.076644358765,637.55652326421,636.116731775413,603.021005781213,593.617168469047,538.283407688042,414.14878551683,489.234525186856,641.977058498486,749.484063607581,837.646160220579,933.763800757265,1004.73703332453,1044.91923978926,1049.8435687406,1071.84563181476,1081.56245660606,1070.13820358974,1084.33164349716,981.343079717128,910.165386917901,854.231448241271,825.421531858864,782.02201886084,719.194461527369,665.129199929879,661.009526116823,777.923981638891,775.783900166967,745.321644961922,800.989233883481,839.339875436562,840.078877959225,878.789558423617,951.443146381074,1104.72243515468,1201.02989777184,1038.05092597509,980.255877873107,995.247580475841,915.396286133255,938.163066337888,972.428862929898,911.806363337608,903.43344161807,994.383902589004,1090.21801288427,1015.66868772047,1005.24056859683,1143.28076048069,1234.50585081829,1183.16370368398,1175.16013605887,1284.43323671107,1327.21086480638,1269.48295288757,1419.92753051349,1452.4927435015,1410.73169251438,1384.43254222341,1362.89434662605,1365.03521394206,1320.09956837003,1201.29796300516,1095.16299850845,1269.82522547936,1225.77360883486,1181.89167369938,1123.11686720572,1112.98678480457,1203.59577116083,1292.2756116302,1358.50046743647,1463.41287734979,1473.23029408483,1428.92055218055,1477.92458478127,1501.81675435502,1582.29956560545,1717.35799396503,1911.82097481975,2035.14917099527,2074.21158483829,2063.2187117352,2050.40399992667,2034.28679250629,2047.36733246687,2038.82395289844,2002.18956531617,1965.54507821783,1836.53660486575,1659.93492411246,1506.97701637315,1513.85166945414,1517.19376048048,1469.23834901346,1400.3397096925,1404.87322379709,1343.90635006109,1283.05783601996,1192.13568672115,1128.32288638178,1058.79418948455,918.309679223841,814.469943240344,761.789584054722,724.491493838958,755.420286690721,731.55638793243,654.400562292744,595.104054880061,573.902647241883,595.038798127981,621.067213097213,603.435652292055,610.592127057692,624.304422155703,614.017376637287,578.785662061744,561.544410309616,529.383575696819,466.256072057011,426.252135459197,452.604972636524
289.82439061858,263.621055226927,249.790995351912,238.990135551088,359.071963771793,466.714012258921,445.920204545981,321.518311381989,352.416605781976,350.305612828702,327.952079314558,368.502214032659,513.990981778335,648.378897797627,666.615113961516,610.412728106725,482.224715224697,393.243534231774,311.057180714818,279.230982083251,288.218712510635,317.332619997876,342.727279643076,365.122899302685,362.451487210935,436.039498687407,462.025845540965,415.175892115166,493.34621373599,552.642043169777,442.577957122181,377.790075622552,292.866166423815,221.974866294913,125.56442498669,191.467166687281,321.036980779025,453.654649254971,468.237284749963,419.720587149528,492.073872339488,575.607319556018,617.559992745418,763.151652654822,953.736684405156,992.761851395985,904.454144294239,806.363241913205,684.895327146935,538.476649728772,427.637950701486,357.706179960941,208.177719000079,137.415532905549,304.079831269612,234.959981628498,156.497481961109,116.841413626163,148.451098576884,121.711073896529,170.801328687864,218.642852502453,281.754535287864,411.581602430436,546.831928233363,617.068309048708,723.163384743516,737.881128196114,779.175225535066,771.485480228508,635.654565385979,509.94646345002,473.429958674365,653.765056904443,792.134677699987,891.061483522356,968.686588567859,991.969036797081,1036.57779587089,1023.95294013424,1029.55777090208,1035.84589076642,1034.5448000638,969.541304623833,855.492666943364,836.079330297066,844.120925993858,803.289633310468,784.881624412126,765.303674719225,683.666199224996,658.334069302453,667.082322710945,703.021250782009,735.013153962997,753.941989478662,791.51157795808,833.269734160586,867.8989842608,914.846731410774,1077.82471859638,1146.5566225203,1027.85444778404,958.071494572736,933.276106292154,925.06354927407,967.547625527052,1036.69876797903,959.97133919553,945.473173102428,905.003597349937,987.663584362946,961.387348015637,986.441013698758,1079.40252402651,1121.1900504309,1144.27896947046,1158.50049292986,1294.50692890591,1330.72764881648,1248.41246915337,1378.87568867446,1352.81128275941,1401.78603352749,1535.48043213496,1439.92977032634,1351.46714842889,1334.18142087132,1176.94594721267,1154.81089587423,1310.05981177839,1384.19997795517,1298.51705840552,1179.77011961865,1168.66728855632,1191.71723451366,1181.99238733907,1219.23549968327,1268.50804059414,1322.23795520626,1371.55417927204,1436.55784118906,1491.32188946847,1562.66561189039,1652.08264932389,1756.18900500946,1779.07239430297,1825.89697847828,1859.47441697307,1797.3778245796,1730.09911632154,1771.23766197287,1757.90971065555,1787.61198628788,1854.9742690987,1867.9785398583,1760.26835805954,1695.34936032759,1739.74332497822,1752.50818158174,1675.78353385251,1561.28426808945,1528.44881238288,1373.52601834517,1220.05548311203,1179.31337570984,1096.2947828049,1020.05503042804,944.616813236433,871.787003528863,830.937888092512,871.456187199732,923.309363822313,868.863264082507,789.257068377859,695.530028426695,605.301004732267,548.844035838903,540.854036684649,558.389210677877,558.687349443315,573.728066434638,626.680304363759,594.000183597928,547.720521420374,520.081299360456,499.307195055484,443.735755959861,457.294628561594
308.523489701794,340.074899820409,283.067160045567,274.690614520442,378.891055217955,439.486590937257,385.272658054611,282.291008145435,446.455395980128,409.171943378779,375.180563392432,408.291534275427,472.093732196877,574.349937396936,556.289846296422,563.243295361456,513.962891536149,394.447615356967,348.589220095554,325.779607322674,299.733338297813,313.485938667949,317.585741076606,307.790509426851,264.294373814261,311.675983536181,305.013094356738,311.920596190129,439.283273480227,520.427020133582,439.545842494337,356.539551408096,284.958659610622,213.806236680378,121.14014505009,216.761047516637,369.997067686842,491.441519419223,602.337243634697,632.821933233442,711.63392045324,764.512703889143,829.008606723261,888.142360966334,1023.01990059482,984.232945238406,868.237449426196,800.988717143238,666.915646797524,543.299393266052,394.198662844828,242.354174266527,199.206916380719,149.567130897961,163.474157607733,129.587582062597,137.772031320526,193.14285664803,220.164604587272,130.811275729454,203.085622366639,332.431186049114,396.227493532889,456.158226725448,561.246636446266,688.643071544916,817.628746147787,857.084349240864,875.856762972241,830.057211582279,702.394908512417,551.166812262719,538.828473299408,637.95454094377,754.088202373006,882.418846292773,956.165108189936,1016.01337791863,1064.6240125531,1020.59719855887,993.39079476467,990.360656304069,961.01540396783,936.608385616447,844.208721045413,783.485435938828,793.481116899101,791.799778599671,800.613778813225,776.949408319642,699.920108244334,819.01007518397,708.009372253579,687.604133730207,753.422228615155,721.154490849401,755.06910794725,794.787921317905,842.534461423796,903.450090132882,1050.21419154822,1169.42450352286,1079.04844875028,975.801923788399,959.357417620671,1016.19494741991,1040.66429572218,1081.30827707023,1008.05816676117,987.941263856169,929.826510250238,905.974500115321,922.817557359368,970.136030150714,985.712513473726,1038.14492669791,1084.33299195729,1172.22767079783,1304.35260406265,1254.76356606396,1235.72220867412,1282.61074595031,1275.40847326255,1390.53673611989,1509.59685218883,1424.76923434726,1297.30147451995,1206.57688249854,1181.35358838151,1219.73818374809,1357.01365471965,1498.97782269942,1377.69850465174,1210.18533423501,1281.81905325064,1348.84148158798,1242.11386283635,1348.25229978883,1321.69173908078,1290.77975436908,1381.47366274289,1532.58520754452,1600.46734072708,1611.88667164307,1661.55119891623,1681.62900738721,1558.10271228378,1585.19741480039,1600.02132920001,1572.76460630213,1468.08576959178,1529.86146954693,1494.07622641389,1504.26783337181,1627.66934068727,1772.39463405815,1727.51959605008,1669.85175139158,1823.02206742694,1896.58233615668,1840.83799141343,1743.97926528204,1614.25056242958,1433.56607220518,1370.43931347244,1308.3442903453,1133.80709669212,1125.90273600702,1048.69569106889,1000.01790342236,1066.90405888406,1004.14526099792,939.036784327742,905.950089888835,894.934119635453,825.852140043877,719.869488633196,609.906983382093,555.261094253907,549.487128719915,539.835706768031,516.999171716675,520.025559889094,529.975036339104,492.77482542512,461.966664813662,449.098080157413,433.477549962317,464.57189401151
332.289942689141,351.166511420317,246.316470750711,242.349303299939,302.52878320957,366.541474051538,284.599388770439,323.315711260191,414.429414524297,430.172787452223,460.021667451597,498.389838682959,474.920266010325,485.498086940904,451.890177396587,521.189767640812,559.861627482957,426.911783269027,347.062791787442,307.047484970048,289.492130808256,308.410500551199,306.814904850606,266.117682027076,258.246814811052,234.582612721518,233.338427800325,289.360172693426,351.804127488775,427.427368812863,411.25803437209,281.132157741963,189.146364834505,111.370622997175,163.540529340972,260.985315278308,391.103384131024,534.490711181905,672.789273337266,750.420142603718,782.744622493293,834.366929419591,918.785869479465,1000.38095703455,1046.52192465543,923.306428947093,743.093744107979,646.491729004468,539.239928828739,437.29684333574,315.985977195444,302.034179548949,293.762912597471,236.933928489816,223.724886934058,236.44066339845,267.125443225102,322.807570963665,256.382003062406,134.417962889651,175.711252601103,297.849378899395,418.256521412994,528.449250823427,634.839816808789,724.744283746934,917.027498707456,998.67599002639,883.302694239229,775.315267949091,682.718224861484,551.202700574619,639.642833355784,775.888238032251,818.433554621219,870.948240059913,932.38528983581,1010.73339389905,1058.49583309398,1014.15198632056,936.858086417254,916.523650230271,841.935614005569,835.849209008979,808.349347889584,762.26302443009,759.760037624009,744.427932670458,759.473300099473,743.313418365655,702.074109431624,837.85986467251,727.396670959809,647.675211248118,713.41721536591,778.517367435086,814.391574801416,839.655103983747,854.163613679193,908.675272676398,995.800621186275,1107.86642262525,1157.14291657647,1043.47072208482,987.866987079859,1060.1432298126,1124.06598455911,1060.37152359636,996.970184540929,1014.7945451634,995.84533249435,917.930404351809,923.103292246883,947.714619821368,993.074593970844,1052.35536134039,1127.42596592919,1172.64202191494,1265.68223049004,1191.53938449975,1260.42450286517,1303.97668772321,1282.96421973709,1375.56495464688,1424.00227804342,1381.48897623571,1297.72737017286,1288.53786903273,1270.21311663916,1251.17409869452,1303.14687344769,1475.97525106362,1424.23328328403,1270.27429498871,1376.53266429353,1349.12508576526,1261.36254516176,1471.74695250706,1516.08989958702,1414.39976103023,1340.90197088862,1474.61514135433,1674.90725245321,1740.33071181825,1770.62390899231,1716.22700995961,1548.24273860713,1464.46799742837,1415.98065937968,1408.57388246129,1367.14799162813,1382.29115716398,1367.12164812375,1421.19239486349,1504.49104149756,1667.37095046206,1607.71056598209,1464.80068562959,1592.07146377407,1754.28036141898,1818.1748265085,1824.17030320168,1729.23086465931,1623.91944180809,1480.31458859555,1292.70905815143,1197.661233359,1273.64369028953,1203.21794701898,1194.36614017074,1160.05936040502,1025.94077550148,955.805047225514,894.224886854406,859.219646064903,869.338716080283,833.781974715716,761.469722719844,695.861312487474,624.721881886831,570.334433515447,546.232681279954,514.106515535157,469.15407171151,470.085034470645,482.215101323663,474.022203679992,459.98771357117,459.109295931747
368.646036370053,355.465751643125,296.065850821828,211.64587392646,228.874399348094,239.95574274019,287.976509714978,351.402710164724,395.858844549092,524.701908028577,493.320638035553,420.079032580907,408.841407678323,413.463929579948,389.177828266595,443.176166933098,516.117520082198,484.638419720753,408.855049975005,309.313739863628,241.885493550495,269.183845934599,283.360471989556,221.95585580362,288.970986594674,243.830166371502,192.696434053247,254.114812110567,248.815210909371,299.998059661849,396.393592745706,275.436185686881,125.891114917542,167.208194602655,340.099752940299,396.782746776497,460.132002973389,568.227663150562,618.67959847775,637.670791704154,663.659026487098,728.673380311349,788.583237756217,863.580781161462,982.159961133149,910.302517144922,764.819190314398,601.555200947539,442.44587693211,332.402611787308,365.626735192566,464.076373401861,387.997235301171,341.03500902714,432.232708132148,405.808962825099,383.417548775507,346.315592517267,241.833334250063,139.917272242823,159.047234895194,277.192597002692,403.698102777722,525.963075045972,659.391143893201,772.813373184633,887.010686899091,936.258294855149,941.498301558521,820.520600311711,710.663022197663,670.943053822276,638.410038602446,752.208639451173,845.248212500223,939.335739423041,1002.15596390587,1076.84984397845,1081.73489670175,1019.68313979334,915.9062446156,877.300351965634,849.637825753095,814.409928439967,799.901676633527,786.627113691593,779.154725997589,738.778868204726,729.828009805654,759.916353448435,743.223637978535,765.239476518395,653.179127143424,640.018394352285,784.977362993166,768.350621015492,804.989600767959,866.425514066599,887.123442849984,906.081965445311,906.472341697495,958.019834143112,1083.63742842129,1103.05382880892,1047.72606632351,1062.68650654821,1196.29068615549,1150.62422377984,1071.97542730912,1014.55812645703,954.727664889489,967.152830540777,946.947229707573,941.809936864597,982.649814329171,1008.58680470152,1041.00076442868,1093.71229683026,1236.18942548679,1193.45375168549,1205.67949688078,1353.73501879118,1392.92113568675,1426.74592320942,1444.93498633771,1311.6492588986,1283.55261786116,1373.33764686362,1310.64532699957,1303.48201799806,1400.03880280405,1550.82254796316,1496.94610393509,1434.0370719159,1516.32000390088,1396.63386581624,1274.34762911833,1454.78987437019,1635.54543781117,1489.64382883685,1419.25769854255,1503.14204762585,1578.78289672757,1637.42145142426,1813.40077947654,1802.79722646107,1640.67720628355,1518.95146777069,1501.67310476012,1373.12724083192,1346.3788336322,1302.47748259949,1259.39655915587,1320.29535318853,1476.17961418991,1641.26873377628,1559.92219127743,1408.94825613318,1376.12915967991,1501.60475346901,1601.97515160071,1675.69958397621,1718.22964276768,1743.5358067897,1600.48807341596,1387.41822127296,1347.57482189958,1443.23496092588,1399.00574329393,1318.69984408011,1154.9788951765,1102.39926843743,1026.28217059541,924.969807563183,871.944181288966,801.970664480093,778.758456875117,786.300899997985,793.584925147172,723.184161478963,621.785776970332,538.292168381186,522.456146320717,498.743424815921,503.741251994009,501.020836624485,519.686636146936,511.472934305987,467.226997957049
434.540790886877,402.662959145603,334.962768784826,258.168701432994,210.943383109483,222.370698772085,329.598426577385,295.738169604536,373.945894211457,467.448841005827,434.492588522216,350.033650809563,410.969921579378,358.804931284011,421.957319520014,465.203040086107,538.622005029646,529.881753661264,407.832840653432,294.822108544314,224.319972261103,229.58840008298,251.14234461542,220.099629989394,282.868107040602,323.84679891305,226.02072742188,228.686836218908,227.310790540742,228.021557547259,266.899242247218,210.788419527813,130.209297246339,253.8692580917,453.031147032184,528.130878780551,546.510896753769,526.15170140071,467.556872017564,477.158223990709,575.6490085333,624.203256649583,654.757363987618,766.60424748772,917.728186994,995.419554348064,863.330448174676,682.79261917681,499.065953745025,436.176443623877,558.722723293761,602.121384534106,471.369536183569,476.073811740809,566.108471211831,535.424965139641,429.122705105019,305.15535090829,228.955410289611,135.191724923742,188.255741855983,340.311160630453,467.796519181491,538.650781712139,619.581236726956,702.943048784579,801.72934106332,870.936677291115,945.224929469255,902.135602387243,855.45279240332,818.353149174001,713.806900462976,771.141927988365,854.143581336325,950.762515183051,1034.85369684465,1141.97311446152,1129.34817652831,1050.76293183018,980.132117333224,917.939932559396,890.477612008257,941.99655332077,851.870161556932,780.092790213935,757.217473051441,747.838925770875,732.073364433855,738.970563110614,771.733144241231,768.248499279483,696.804491294442,616.658129283616,758.826113778787,728.643139376298,787.333840774402,828.13894728604,847.066565188432,825.362201794993,824.337522650276,868.551572864058,937.483602452928,967.918954112255,991.966810907993,1069.04040689539,1202.57678234787,1148.34035123164,1051.8681894144,974.72134663967,937.453833846712,1025.84977989463,1021.94725691299,944.429248097054,1033.3031415432,1085.05714272093,1128.74221399752,1183.34176448892,1234.04334497865,1155.3054229918,1224.46142198424,1284.49914474503,1335.72970193603,1467.90816256186,1532.7503534568,1388.48784845858,1350.0620454543,1395.17752465141,1337.34083611833,1343.26332754744,1477.62792827135,1646.51180071927,1673.29716443037,1671.17606385211,1519.70829979073,1368.66991051268,1355.25860026912,1403.40209856706,1641.07573152274,1626.59563189882,1557.85531906603,1539.86438299185,1613.11142393321,1728.02414172834,1828.49221322837,1749.23493181558,1611.1787001011,1609.26099281429,1517.28583262796,1452.81208839453,1538.06692870041,1484.0768098104,1306.52448357902,1243.19093684723,1448.10912165282,1469.24335339891,1407.34436323754,1460.73026861553,1304.54951836394,1330.67720516368,1527.70063078079,1448.90314842711,1500.48791185404,1674.1535579605,1704.60182487596,1564.73201321639,1493.02474935604,1624.26517607,1571.28644782975,1364.85171309891,1268.21861876465,1295.79131161504,1125.45305750025,1003.38010076707,1003.88055055032,913.082580515451,792.995136644801,704.614991461093,702.513624492571,689.159433564502,643.97395861133,624.145490473828,593.94033567576,548.560388491017,529.536054767195,527.585376967653,476.565969347519,475.13183306484,467.342740629286
