0,0,0,0,0,0,0,0,0,0,0,0,0,0,0,0,2.19713635875911e-06,0.000570484377662639,0.00569095635861972,-0.118491641065665,-0.550405875375802,-0.731801330894146,-0.718218485504428,15.1356591829624,56.1615743704255,55.442738500223,78.346656381404,131.040653787073,193.528360958736,247.541443826799,368.201277650091,463.531982479497,455.212997437625,386.989478481651,396.859750972403,308.683725095317,227.008713136358,245.862676091167,271.38762024045,312.999025694069,336.731902093271,265.939595609386,223.47744754688,195.480468649537,190.74228534934,169.931020231066,169.201548725602,169.923977166908,189.703792586457,245.636138487955,196.329708132931,115.216380006548,111.897168138265,205.803399452264,300.747497539952,290.159132683962,314.106155873773,341.65337201431,347.303344186735,266.02291128697,296.812603993739,295.697102530615,275.006488748998,272.188474369428,312.142258271019,400.970587903751,436.207382171828,387.370715018091,334.984971111024,340.879595000846,332.588108270059,347.119674858465,283.246114067085,285.600408606508,334.553366737524,296.711272709811,255.088951309847,253.713077591848,293.909657747917,268.281393092291,294.037311292339,260.841558990376,209.245614468182,233.039711955053,288.973985092983,211.655840719299,184.057571134456,214.89636429329,172.80462721202,160.425424957965,247.54645049338,288.553900387242,216.991312866992,222.525663571638,233.275129872076,190.943303003847,179.513101638466,188.613693022062,181.685557619489,164.353860314685,152.301611785935,143.52293415458,131.792355566473,121.296005167329,110.423885190499,109.858283235547,109.370099824244,111.420940839595,115.387280773555,118.848492073065,122.889397949653,127.839548322232,129.975238280231,132.530197675266,136.71507281664,139.15830779452,141.973401988073,152.127862710803,163.950777983736,169.566631042893,173.659045288095,174.691813878798,200.108864095356,210.972723164908,234.989814307359,220.527285671132,243.318537980886,235.096109670003,311.884051974129,317.961115321343,350.230262258785,303.490366512693,368.235603430603,345.923324028226,370.924024282634,434.391815545822,464.608093499755,492.623646139761,504.445682193366,506.51835741795,444.198938504297,399.496137410929,340.782038027406,354.885775569654,427.287546219118,500.696595883671,484.908583155417,385.238282841413,365.545884479917,462.318495607707,523.466656462645,400.121212561101,408.138658835088,464.520935714655,480.288542544886,515.726828431326,520.640060487066,458.642935794015,512.784218332706,517.218064312847,492.547189303988,511.065432519117,493.933900166308,436.181730220286,418.837862321556,408.344372771038,406.869304328138,405.034856679479,381.190090963174,380.245589070634,381.076241613027,381.562849223422,392.141114743363,405.037524497685,407.782398786758,409.99249509163,426.324077886983,453.178568917689,472.82146992672,493.804035408788,493.275391081181,521.027152196852,549.9656885047,590.121613627268,615.365804524198,634.341768197276,609.964579337036,650.390259293478,598.509798294585,558.582692863186,583.166283874646,636.696142178097,714.596588101126,835.148527727197,882.802507176939,855.218150968755,874.970630374606,925.724770095592,1036.26215359677,1154.69600358162,1255.04806441771,1298.75845237938,1339.57786129805,1276.27905077218,1310.28099505229,1219.25123690175,1195.90541905455,1265.15439132952,1200.90209423787,1227.71923656953,1225.50362910961,1195.87421083606,1153.73861461499,1178.6262810225,1256.95778749632,1381.4889685104,1515.60218662103,1552.5561696562,1592.2691294409,1553.08168224518,1500.87895847312,1506.25469649929,1651.02864423716,1777.45326019524,1754.86150793808,1872.6441102713,1878.82267309332,1764.80688824932,1683.43438847643,1634.40480898027,1674.28709257097,1672.04231066391,1728.98726071386,1776.71208825244,1779.54588748511,1719.58998107014,1505.38930579986,1431.29766265438,1430.45474801945,1313.22448269512,1421.0187209985,1604.14732905281,1707.52808209987,1852.56981710161,1885.64650721831,1882.28770907519,1962.10140191781,2035.48905025467,2108.11026574596,2038.47561754661
0,0,0,0,0,0,0,0,0,0,0,0,0,0,0,0,0,6.63093932848262e-07,-3.31196070442648e-06,0.000992619777696453,-0.00756849066895194,-0.0493354352329516,-0.221398346595201,-2.05700555089102,11.9730836410967,38.3834328704513,91.1335333503523,155.178896257453,200.885737806908,270.748133630948,331.125371154551,427.022650470783,515.087247298374,541.425282567279,504.863882088145,347.807315675421,228.394632879127,318.814584463403,359.11186709458,389.05427969848,402.313302738951,370.723076461753,309.805978858402,252.789843639942,199.712430466678,170.953233752742,169.655188376182,169.122544441231,198.361918952211,257.413833957658,182.920562241932,107.162747186481,121.384705243636,194.43452054473,263.295168640943,263.811118489466,301.364305791365,326.646160197104,334.462223260265,241.238412682075,241.381406925533,270.571562918298,259.028507548649,250.632849141147,314.042456653529,371.106737975973,412.851294136872,384.540676160623,328.743876017133,317.726640027252,316.367592310293,303.72292408339,274.534479059255,273.95318784954,323.72203873932,269.624797140579,232.500085718017,277.744537896374,297.407142244566,248.094561088878,306.179248896861,273.218561436611,197.903931685869,270.200153197587,267.375841600137,189.438418614459,166.218982439234,200.790604760541,182.123957254938,147.843703543127,194.340477001515,242.445821246884,221.547480843011,167.601827566134,148.0225902763,136.868398349987,146.447084547029,153.968251519826,147.440604541391,136.41914472691,134.374650425208,129.898755676293,112.251235356511,104.542766510959,105.15601267598,106.878735241409,108.479946929218,113.074852566553,116.590095744951,122.147107442716,128.92894715439,133.147088966264,133.440685651239,137.187496623269,146.364685458242,165.069127711775,172.69061577605,190.152303642232,209.839403567211,200.665374876226,224.976993791988,216.484017117018,268.146967609826,306.737693898057,325.882747447112,243.942010084107,267.132619161622,275.553088578041,373.096845709815,374.863284343053,375.749582266606,354.899885671337,446.691287952505,433.163340298366,542.022415173843,617.47287094736,627.282958596636,629.365536121093,586.346348921897,568.910230112449,519.422065208096,484.956833885097,376.400751005581,351.642709611331,396.4715632335,430.424370046934,473.626062936549,392.830326735531,446.411482372951,467.890528345121,501.581750900437,422.47207331554,472.881339665365,500.273171882161,557.821402671184,557.430392154521,532.58379518528,507.489209419312,541.931312167275,526.69474288078,513.512200722119,477.851140809282,473.725297548161,441.087803331902,455.103165724808,446.104628892579,411.845344073203,391.750473400178,382.997579595003,384.890172247042,390.717084829197,390.927221398053,388.965959448842,406.331894417465,444.967285685967,447.586391466226,427.697202231899,434.015698090703,445.289751477548,448.983025842186,469.672814122727,487.508914767886,521.016999194387,538.499465927963,560.709481567081,582.756739410927,589.256999621231,609.872416491395,590.533255865362,595.365731837364,581.112008859856,618.153598632283,659.107064482886,736.862757817588,889.59769798187,978.650043434233,969.783807854165,992.418018156176,1117.74451229324,1168.40156328365,1187.63914270519,1214.73485493325,1228.81274767557,1165.7793980459,1174.40518453003,1132.96536101028,1143.80891395091,1205.52396732704,1190.29223145282,1194.41887432836,1162.15989043257,1128.52445865075,1137.82643784942,1261.41117661055,1376.63594688611,1437.87118423995,1526.69252623563,1573.47398706937,1640.10379664609,1661.41561849255,1654.94435942473,1630.4961015053,1675.39670152879,1751.29190479767,1750.35113334283,1827.17909845444,1938.89966547855,1874.94166201326,1759.00278902301,1625.68874948481,1661.50167434903,1696.34751003404,1726.53435288154,1698.22943640536,1631.1813941955,1669.48384808254,1533.4263818222,1387.15472123877,1363.77944031718,1301.85322874536,1372.03966704618,1551.34240835349,1708.18250142664,1849.64944778128,1801.62772204374,1745.80432323892,1855.34254596607,1970.26839640201,2015.14050948812,2068.35595525284
0,0,0,0,0,0,0,0,0,0,0,0,0,0,0,0,0,0,0,1.09429582892431e-08,2.48858617509251e-07,3.61924486020645e-06,0.00719774942390844,-0.220595574413943,0.732878407103962,10.5691551698042,4.55341451324591,26.4806485512087,103.712114661769,186.916045597523,257.375652195333,339.358481052467,419.973617718156,572.320022428372,546.040429348433,304.614566587057,253.355995004245,420.399350106332,430.124748151558,380.637137883976,392.740306048553,345.432739670444,249.083375106268,201.452713894779,177.448241246396,182.325454078939,169.328083971293,175.294356855565,210.998776842634,255.545517659824,157.743035958819,94.3669402855617,205.439244534286,243.84660273561,242.430436508166,291.363611657267,304.011394990867,284.471657834146,307.185253889264,273.545409607839,221.372604240955,275.348703798015,236.943765926041,243.233239868626,279.007700394431,320.648353866038,371.566189859717,345.613094264423,298.777381813402,287.131151856251,296.20069331787,280.432189632276,263.518840110471,265.531770627966,305.787626356253,254.945484003802,246.32838329276,337.688583420957,251.702252905616,222.036945315018,273.192403819133,236.316971996905,188.438786101915,264.619202454212,251.064583706966,188.720280453632,157.201288177123,196.392301254665,197.699903402329,138.693848984574,149.578676027876,199.79760246921,185.187778248589,126.91966652443,113.990072832921,123.955291498777,126.299618010921,124.974557058459,119.009307341986,113.416871290651,113.875498024963,112.118511713323,101.398709933185,102.313354753385,103.948163377555,106.461426222985,111.065787958201,113.15863723989,116.855025067676,126.122277878872,136.905039271121,141.023205484273,138.857127762152,145.98549813922,165.018619838654,204.096018571148,238.414830114447,225.51461389347,212.547050611495,200.440294520966,225.942755761748,264.478944072955,262.682566387837,400.083583588782,400.96416572072,299.121234089888,272.169881433557,345.23844843179,446.884758666218,470.436010697258,422.594636748088,438.886736594951,523.687996681861,544.622434031264,657.159618743878,771.080365454871,797.555554844602,744.445511844042,672.547296259105,651.425426114142,594.487784345102,519.343585658778,465.342560565396,402.199110589055,398.742490902787,416.202255661353,467.08315817737,416.932908925612,474.43928831198,586.794032255448,519.142535158923,422.027893108894,513.06734143579,546.124580599627,631.561080658063,659.622075302174,639.402753230984,588.890948171151,560.600031123239,564.180512934802,582.180944366364,496.276647480971,464.011671764399,469.05719923884,485.223121331413,485.802901746825,425.466429576294,390.378147294419,388.511395286431,389.149322548993,400.79808560053,410.202194692225,407.995425495085,400.686002994879,427.684359058424,470.416643102606,469.453978646975,473.300619509476,462.840689564307,473.761535301284,501.984614724217,537.413813990271,586.060128969775,641.906921943698,596.870950464899,575.49294365536,611.746450260587,626.58004694578,635.925467038579,620.65061382537,590.678763362899,640.738992520209,738.226958869009,775.822842585254,767.691308468546,856.552678309259,935.466612867836,1072.12655335325,1107.60115365176,1051.92173233455,1086.96575913742,1114.72317962675,1116.9258460667,1068.59464610444,1122.4173025849,1086.10591134197,1130.39640166645,1175.32343937856,1201.06235213474,1196.7461668228,1130.21699588655,1077.89801907055,1151.34388117038,1279.14984869948,1388.04835571952,1474.1621152357,1506.06162298543,1461.58833509632,1548.27734093272,1595.61921921293,1651.33614960198,1648.02013251274,1658.93337233971,1658.85681532976,1653.07573428612,1788.56273113202,1939.46080930289,1909.11410889195,1760.82238043919,1558.3473103719,1582.28253955455,1722.20025749222,1651.08850996164,1553.7391973573,1521.71833632251,1576.98018358286,1470.0667105193,1384.55020260058,1277.48379110263,1300.64262902243,1417.07373435405,1639.04979797225,1839.75416510373,1874.69205528351,1699.72835984231,1629.90513949154,1769.76483479668,1863.53116334374,1858.66433431262,2044.90458811945
0,0,0,0,0,0,0,0,0,0,0,0,0,0,0,0,0,0,0,0,0,1.75955558649307e-07,-1.15803341302903e-05,0.00890707919281341,-0.0684867429216338,-0.429548645427696,-0.996646302495251,-4.68016921532516,6.21303621747807,98.260795133667,212.444638175609,283.813583669325,367.323042316236,517.789814794922,566.328773414272,294.085712743404,320.582716726448,458.493058059129,358.202827994804,360.97518991085,408.211543630413,287.664316023488,227.849305803575,229.705067823344,194.950502809794,178.571319849152,169.979904004263,144.058040335421,161.122773832361,215.637698504711,162.253806133064,81.1394064902521,196.567328157802,246.386338527245,250.099974706763,223.131751100181,254.760402022814,262.031286979214,286.318464361058,304.602157262848,214.183787700498,251.090019536524,212.457478412498,232.004434472204,267.794443974719,322.123096859008,386.230550462944,377.792549615801,311.423002334544,268.549077794032,251.023035760538,243.380238408023,246.493227388179,278.426854870547,277.209193556056,231.363716018044,242.344811149922,330.305698103063,259.686338462017,227.014528673572,215.112579108641,221.493685765438,180.251944196961,234.55315791807,254.875578181158,213.85142984747,163.767349008786,170.332232034201,183.613701650019,137.943930886413,127.728502207892,147.768940422437,131.691044740206,110.207344213056,106.725654917378,110.796427642356,112.618448589919,105.535781212381,97.1643750056736,96.0160538107492,96.1421028777599,97.8823937120512,98.9881466150523,101.063208909815,104.048430737566,107.572907584688,110.144793910467,112.356604701226,120.130059848775,131.035501264142,142.713232911247,149.483864141724,151.451620450553,173.464392645742,193.885714630386,228.308781225774,289.27833837059,282.269158143544,229.320723180183,221.721322586111,234.977566321148,317.0258827632,308.71287249542,451.013817972117,488.810055599716,354.75840549424,313.796912910114,463.266579001173,554.491511579657,567.41524066382,540.304556356608,560.029864151398,610.165292619207,642.140253573972,736.681275634414,803.442794708914,845.556339555622,822.592429238283,744.231037222338,747.57732032439,674.754518438278,583.438543782418,578.053388896041,447.786037778054,436.045712832111,475.79402203759,502.649680220051,491.401929988413,531.003231358285,616.672913983228,532.78719916697,462.814791990352,460.611568708364,550.13134147163,656.112191480764,730.560300948557,654.518178573209,644.878174061902,652.792574450387,642.529367667244,599.122271578436,522.732199547146,508.657107134724,521.099818694201,485.45822085472,463.340033180434,428.592294066058,397.77274965773,421.911831757512,423.58424241162,405.114445276041,422.802203160058,442.293438943856,414.858454024651,411.079892335803,431.496018756325,460.836811820179,508.911629304239,519.474452184648,521.890102416742,565.371275488088,628.543484874458,682.909657293699,772.862085662062,745.415588597296,628.518561623679,641.649384924266,682.297525588726,681.253059139745,624.385802124332,651.773450351104,665.052595641017,723.352907791469,857.398765952478,881.712160279696,801.325112681049,898.646627806031,1006.17247817773,982.986209996145,1002.20360405291,1053.27045735227,986.961884056697,1088.389894935,1009.36974228319,1118.18955408365,1065.22196814802,1102.68468385008,1133.56715969928,1161.0292349721,1157.1236747442,1070.5541966248,1152.69744197259,1144.41237093967,1170.09576547978,1287.30160958806,1348.63512277969,1384.35815128153,1387.45948826166,1481.76573769782,1544.16091440762,1611.98597146472,1569.36791002844,1617.47901804564,1593.67150561416,1682.88209935348,1840.1095182797,1831.41634750706,1884.85441264008,1695.11713733976,1537.22169814357,1510.29588419046,1652.19955410622,1537.12741051926,1426.43139310553,1464.20517667743,1455.82202026026,1363.46280473585,1324.32043647152,1260.13965354333,1350.89531413669,1515.1310256877,1749.89006892951,1935.3624827137,1909.26349246144,1661.28013678282,1562.88094425786,1736.25935601127,1773.50402914739,1725.88211358526,1921.00237789122
0,0,0,0,0,0,0,0,0,0,0,0,0,0,0,0,0,0,0,0,0,0,9.88784028941189e-07,0.00092079806844367,-0.00742836709954178,-0.0541898967398768,0.00147844384676314,-0.0759449722421361,-3.23514613741381,29.853932730368,175.662472856701,251.126873970616,297.901984406601,406.158484138409,501.47197953228,275.809565783739,344.59786834015,445.291604830806,312.469855662093,396.550936279492,444.311407650722,314.427186910496,286.751580128292,310.450947385579,278.400986486794,246.113340605799,209.478059015108,153.425043548605,117.188489485362,119.964947700104,127.579480454331,79.9597517641772,143.803072207216,246.107651766354,209.32656958339,223.236709898448,272.995930521643,256.976589642628,261.696201205134,256.990524972089,202.444660455456,219.003718997703,189.730263561282,211.993770268243,293.333130967767,346.273795849144,360.415064071678,396.306093627959,358.289601431619,307.259623318726,287.324822868791,258.429600956368,226.332088675896,248.939784201569,230.167595866355,216.921015895595,217.164261402111,283.557723367413,274.596413349854,227.134207078654,197.866370897056,208.449154968154,166.655596827347,210.498454695856,236.190141971654,212.046419223888,155.218278003392,152.022130238148,204.487825031125,145.01742536461,115.831970016273,110.462793092919,103.123865151651,98.7256159328276,97.261558474155,99.5576343789346,100.66964936745,95.2046487077447,92.2242986390126,93.5457385801441,94.7130707236662,98.2660800714407,100.420142730029,102.409905664758,104.605477549064,106.782893119632,110.26641809457,114.026898834612,121.799488853034,134.955013791248,146.974396038602,163.622352006274,190.749439076841,212.964170909743,228.498789824352,262.051170067272,310.931427398907,337.968843898399,276.513879053902,266.934873683169,248.328085420775,344.895405273006,377.822466132767,537.353751195542,568.429276707762,423.692024032471,366.542336097495,474.041138913327,646.438446010223,706.423960666702,666.434658574437,705.753062624337,738.912743120261,777.701958361521,802.562499726583,771.536983165106,767.819277490641,810.756034679333,806.265878380607,830.621188027885,766.221473461916,683.50935478482,577.371110518407,449.949543841233,462.666185285317,511.525667926697,594.412227229043,630.433546894455,625.960559918704,666.465779389584,649.796143590579,566.470519875124,509.56007044438,494.2092552724,589.876076219674,648.518663270964,664.284225619016,710.656512805235,780.097239537826,757.101014278556,641.833883382547,558.892279681852,556.638796983015,542.023690421388,476.224917473864,451.454670986051,425.021893838399,407.927921027927,420.235479084227,452.759541206887,431.91268022966,432.360305352019,447.988493762325,436.444535138993,438.266466151813,421.643214008824,448.771542524908,474.466183673422,496.781870674003,520.991418908858,613.165760167646,668.341417854855,720.220884692927,831.113520970028,832.654062831267,734.98241111676,723.276577210881,760.440853807164,728.505163921342,673.019872346593,710.988011469005,707.536596413351,697.698210112198,786.624225763414,910.921800790348,871.036443855543,846.906818970081,892.638881908367,942.40939587641,1082.3008831318,1010.82108979559,972.855028783637,1043.83486118874,953.634902100236,1040.52469055166,984.147637004937,989.940395548303,1066.28171075307,1069.58971530277,1054.99028605628,1065.76171049107,1267.23603203553,1274.57588164404,1170.69539340114,1188.6203621227,1273.77515760517,1309.24279701049,1400.26332606846,1476.60024292357,1526.52953089668,1619.38400995438,1530.259420367,1570.31559711011,1568.53328050683,1744.11250866715,1849.42783208348,1735.40719834827,1802.41449465968,1673.82030304271,1453.50257774759,1460.31535483706,1600.1280791128,1468.56071501316,1347.89692788334,1427.96414298856,1406.20808333808,1294.10174040804,1236.71344689518,1265.79787651481,1449.91996945418,1650.9578402141,1771.75962935892,1831.59089411139,1883.74947244849,1695.9754790511,1535.61836608652,1636.38346454027,1692.22310026036,1661.16408238716,1822.25342658543
0,0,0,0,0,0,0,0,0,0,0,0,0,0,0,0,0,0,0,0,0,0,4.78577731325723e-09,1.35418341816581e-06,-1.71799509340487e-05,-7.09107112990926e-06,-1.99870899241236e-05,0.0078074321088551,-0.853946485427268,0.50608477334868,96.528105438366,194.061682770198,235.243078000678,344.229471642401,384.341816511249,201.079525003306,292.282286686072,350.308702068397,373.539410010161,459.976147738353,461.84056615387,413.879113334899,376.466996874573,407.715348702239,389.743013352877,346.068640960929,312.782963505069,198.913170068192,124.0191849135,102.643084432839,92.5686051573294,87.5037063895295,178.958700670373,297.299494731116,171.617747163113,188.328034736867,275.11188796702,243.978383998897,239.826094717308,258.877363903115,189.755127111447,168.490109264853,218.986693052887,247.217641246715,254.983390255663,286.470896742748,330.041999740009,415.629537468151,430.799888585339,373.528141677635,321.996252466157,286.062745080427,212.001617668105,220.159527208282,216.077093870289,203.960519840373,200.732171654304,239.275308034467,256.333828436657,201.973845843934,186.482604620099,213.92711665528,163.943326048455,186.470375497158,227.904738917056,219.729823888529,149.606465927403,150.169860916157,199.618411158906,132.275776167807,105.251156630048,103.665707119371,97.8712148608816,90.9640162984605,88.2483504364173,89.3851517012042,91.3529681374084,90.1352037148566,90.1227994591153,91.951387530415,97.4313573698398,99.7107571086657,101.833343798639,102.506511672746,103.559941894162,106.539834387221,113.473059221845,121.47725461731,125.858459559998,140.674963170302,172.915132532287,191.806302104062,214.388650900917,257.87533810914,303.398570594877,294.246925856394,334.142609766074,370.933051743792,361.487921844368,346.07904781794,296.836709403248,409.265234043822,483.759563968373,577.393134035465,598.075111097843,527.183183843318,462.408883793634,514.315062387669,648.499526677346,719.567467092394,729.071893633884,775.601142034557,825.011233843839,830.760296374649,777.510660380615,735.149262791453,724.348805545414,773.848698460056,800.822560490694,835.535648518444,847.843331570999,790.175716323065,614.771169030024,503.897881414457,489.88757542294,556.618395668564,662.636977770739,735.929726750455,738.504383170264,758.009134152304,751.183833002125,694.514843737241,646.814976943919,550.89874283195,558.561376421112,593.405998686991,709.293950759671,688.489668475367,779.557382198594,776.060998148948,677.490872681909,597.829552071767,624.874621320407,585.354577482013,521.631146588009,456.565752663924,448.263900350804,431.388724675694,415.854974751966,443.060081571058,454.915300950548,447.907462333917,445.58442224969,443.278389091634,472.992521548779,437.979195381036,442.28172943892,485.748641271964,510.801442467631,577.900451229535,685.573329371152,739.229596173488,755.360319547526,845.138059041276,867.146170950681,874.814352021703,868.594824572274,823.909209905883,848.57478234969,810.3202068618,752.564302553816,733.455990116378,743.282659130075,763.002112946127,850.287543996409,947.326906464953,919.641986467669,936.736986784032,1010.90196783715,1018.03140139446,929.599937949023,910.352334924904,895.114765351507,852.236207780366,894.4455215066,902.925509307218,915.474260221429,939.800997113384,957.125829327977,980.147194619486,1115.13323444966,1225.74502267621,1318.75311046441,1351.88794787032,1244.6416440226,1210.80844540443,1282.71372050914,1393.76271990236,1408.24885314876,1515.96971758647,1583.30401009408,1468.84080178605,1490.60275969961,1577.88263197784,1698.62271587466,1819.57803268126,1720.07694709474,1664.15112860426,1609.42827623824,1396.57732027653,1428.37061891805,1498.7400724654,1424.9497040748,1304.67809682998,1381.93893562749,1404.31068471835,1335.17046787814,1213.55821075262,1350.12460130189,1513.94375440905,1629.42336221498,1676.63700679594,1709.5069532724,1809.57344270389,1720.81927038821,1505.77968182289,1530.33894371271,1585.03723081272,1636.0680185071,1725.12699683123
0,0,0,0,0,0,0,0,0,0,0,0,0,0,0,0,0,0,0,0,0,0,0,0,0,0,1.4400770879341e-06,0.000593360754690677,-0.0511482651268484,-2.48222521705537,26.5380801152836,129.230885051266,187.591338926627,257.110082050665,256.944458143841,155.510436444088,370.714830702699,298.132983603399,376.290468422923,404.327681497937,372.08278942195,472.014809747041,488.903223915653,512.823054078517,500.046457503691,467.407155488772,357.989751332677,213.819397664187,183.865034436134,138.403954927281,80.7297152156671,131.021972184904,264.172018919106,314.881973519869,175.677336608872,157.945627973522,258.044263785229,251.469872435751,199.13614176174,210.380990324727,159.036454625626,203.314497156361,268.750948684269,317.542300816525,314.084997710526,322.022078650947,328.274684902219,394.148197472257,424.832293091084,339.738280456859,269.992684764296,249.894839002548,202.914305597874,212.587397746572,229.518614609322,194.138213383395,189.696710393357,213.615027779904,233.735809266648,201.948378093728,178.07343009325,226.876344850923,167.336237565777,190.070783304182,239.830176200949,196.909332235895,155.563568016639,142.398399314135,148.278216715607,105.173000893178,97.5964893755204,96.0134712678931,92.5366752129122,87.1830593885286,84.382220029471,86.719412378778,88.1541499233658,88.059637424188,90.4371656105407,94.1483429145618,100.145111996556,102.298333243951,102.859085313147,102.517358548012,105.451500968542,113.137892137115,120.94341001446,129.881814419496,158.643110445021,193.838768627913,213.639673717814,208.7719256028,234.471098478738,255.215491893962,365.407787919961,413.200577401996,423.32949449342,456.885915373972,468.630809249923,470.803977506479,470.333259959725,556.659236340242,588.448236088832,544.950439331907,592.866325830726,575.93489311303,521.384879306512,559.624510451448,618.03205480684,646.50779375923,694.323465612374,720.383713418198,781.909123006414,767.389985285088,746.135969292644,701.030217980401,676.484730769588,699.622131881595,743.813652051884,757.241313031949,844.942462866179,821.066375156121,690.007688874242,609.975125931548,577.904426479542,630.887923506664,682.152283198818,754.691569110115,837.680273030223,870.642253889979,846.872876373389,797.035185049521,708.672769789036,666.357602296291,694.373076197626,676.645296286536,737.265236981534,762.375336315508,710.743550020762,789.71377340739,768.332094838107,721.487296714192,711.693982252111,624.717572888998,556.871592708623,504.545235341955,467.843057335775,438.542050471018,432.499157843239,471.796762865315,484.451184798305,478.799912135075,459.216881644521,450.131189198258,485.261798783602,466.405898929521,488.908729767401,536.864974742413,578.325889683528,622.961151007744,711.797734761763,813.741371027642,867.741664562554,922.013170570115,903.573775912954,959.947034930135,1034.44779320181,911.037946367921,939.792363747226,972.061270849022,865.259357278703,852.981277590254,829.770752839069,809.363910910092,860.308470944353,982.876945575988,1026.67359383665,1011.0541078611,905.30333893704,852.672277258371,808.404257196869,783.754203335119,801.682667922988,865.292692116973,919.340341201074,955.759394406373,995.50728854926,1012.48626837707,1030.84524080413,1033.5898190709,1068.78462244992,1107.05965573401,1180.95761655351,1367.9339634077,1415.61235768659,1320.77366304081,1259.17497219563,1271.61286174837,1354.5327427062,1487.71638294278,1491.52614688906,1457.6156920721,1584.97208938668,1646.25100976267,1693.90340605025,1726.59539846389,1730.43731124076,1588.43612482225,1505.37391977161,1351.79957897822,1364.47110753674,1404.4562874802,1365.40850682795,1269.40971313556,1340.16650711424,1322.3084725586,1256.48395376106,1212.34742537208,1402.80866370812,1519.18563645358,1533.91835439234,1610.49107065064,1610.13503932377,1779.04502343605,1716.24512302827,1474.57968013622,1451.73293396242,1510.12244845455,1579.99684249162,1566.84338866286
0,0,0,0,0,0,0,0,0,0,0,0,0,0,0,0,0,0,0,0,0,0,0,0,0,0,0,-7.37178991526242e-06,-0.000357577452181519,-0.472910102632036,3.13194879017851,29.2623923768022,74.2608205733387,182.85834721155,156.304041765627,174.784637361037,317.267720948482,224.408240599855,327.936220140608,284.675686943457,358.887127004304,496.119782665889,516.231333315899,584.340193124136,608.393253678942,543.391463603403,363.045461712845,307.888105077829,295.618178507649,187.129716489179,92.1924640136645,113.371784244488,189.020973654802,246.510637160912,162.729112767825,150.411612853681,201.476940599367,248.513507931164,184.283822968896,185.572025682987,158.472917239763,218.750374777236,290.832466893452,355.917818953296,407.25473971709,384.467722389531,373.341674772846,423.87455054329,402.544953992668,332.269748969066,274.053485525018,233.551303294602,194.0895834674,201.422546503736,213.338710839546,188.457818842911,179.593461627831,215.809731254781,245.606720038592,214.232601190006,171.653117202893,176.737511695395,155.925951543688,174.498189623261,222.938223591083,169.937315483664,133.361719711232,111.2943117138,100.15417050275,92.3071417437744,90.4924504994141,89.2639812869313,86.8099084304818,83.2212952682347,80.9523292937899,81.491356861603,83.2316611958797,86.7493163015245,91.7750297742714,97.0832273974769,102.31935599251,106.155195515614,106.705805724144,109.428010613112,121.349786383603,158.022998545821,162.431208739165,168.506758135886,185.010111465659,235.924494666266,236.043850813049,212.343110645633,268.035198164201,350.227706184932,474.134845331208,525.027689295443,583.682367286955,606.470628803622,608.033493395291,603.162091091724,571.380883636608,560.135258405561,626.753410466828,599.036979094195,573.65315266016,568.993553164586,564.952056329404,594.387265846154,606.954357893476,605.420934458977,629.763599236827,669.387892408738,726.369546829677,709.93013056905,673.7863308367,648.127937529799,634.964454873336,647.183874822461,668.438090656458,702.79589267903,794.56275723773,789.231308141359,779.047552618206,692.865023615163,674.699774597599,678.428751338434,632.884822673796,658.293653860502,720.146556818618,820.740226619611,857.627654457529,848.46380929468,730.179784123835,775.318539204197,819.025602697686,787.133756400036,794.498804319434,840.791953600427,779.620224707419,817.446622033554,783.873743511174,795.994292253741,800.382170417612,652.441085199166,525.306592043372,482.790792275381,456.856773380545,435.661277061792,434.731904213493,477.427014114527,525.468308066547,527.773450748036,487.889793212236,476.727625769314,487.675638372568,489.799751516129,523.68116051614,518.956357225289,580.07399462476,630.780282502675,732.302056497934,875.216464425801,986.676347034144,1000.03538065993,941.903355603278,999.60592078887,1116.1253066138,1026.7145691013,985.975655229924,1088.15872299951,1020.72326035522,1038.29471359194,884.74373858963,763.687534168671,783.482579663235,865.449322960773,918.433326937038,983.543219713465,838.717397961456,727.991846346688,776.330109777777,875.261662629212,884.155995392058,942.984736324226,1074.59006476889,1092.41376334932,1042.28372292914,1094.71255182955,1186.72245390992,1152.51633912746,1167.08767366441,1235.46223365419,1188.17160175855,1248.03346535413,1392.27072106925,1467.22106430375,1386.62805030292,1336.87345672581,1343.01715553439,1374.25841225282,1419.35195064153,1531.13082246799,1608.41997684638,1672.35714442355,1592.7796965787,1622.95403605203,1678.74386990459,1549.08957011294,1501.7145698085,1335.74571316931,1288.00211672124,1410.86584398823,1448.80494502502,1256.53136331437,1267.88767172163,1272.47618396257,1217.81374436944,1206.16144330348,1394.32095343008,1499.95133077961,1460.39875108006,1518.12490118725,1603.78796928015,1808.56477169387,1734.60769279354,1522.71912155018,1409.58764281787,1482.39385707646,1475.19856310794,1457.01089787298
0,0,0,0,0,0,0,0,0,0,0,0,0,0,0,0,0,0,0,0,0,0,0,0,0,0,0,7.76822342790575e-07,0.000837158396580763,0.00922984751385129,-0.0125729603384523,-3.26628027825466,-3.66528208166469,81.1369096963702,90.9050575143265,148.862136921303,204.984186023783,224.125753325545,256.865226707999,268.378202114609,470.195883484489,489.037963671795,377.648514950451,491.108200074611,553.669520662631,582.561045716733,495.641872867466,450.31170642138,390.023260080026,229.762280387588,164.676465137183,85.9388040043043,105.395361247616,185.476724530586,144.965274845104,171.113066745261,213.408404117607,262.709931131371,196.497907130451,151.312288634997,171.577186639075,218.508114956811,245.458208590629,342.582226172546,382.642118577999,456.48389703661,428.913091361077,413.972249212777,440.234479756132,376.853319015926,296.547201127901,229.831828783937,204.281528261718,180.691564717089,209.137860347029,186.52668427615,181.304248106392,211.402804351767,240.175293263227,237.732471281765,178.381398998671,142.797670050595,143.903805777878,164.093535869316,198.034467589599,131.006066404471,100.806944570384,89.0848039366153,83.3678285190231,84.8632377037425,83.8336640958044,83.3055602682655,79.44907227417,77.1013103267624,88.4591520301385,113.643934583958,106.436683681344,99.7140825761975,106.900695458178,109.624695290412,105.144177113029,110.615308527017,128.533163650493,150.313297491297,171.999219768206,206.656915556259,224.482496670085,223.738032311891,190.706353825233,244.202178053029,334.370409560074,240.915456462487,275.624642216021,472.35208325307,516.151293144272,478.055498420972,575.695704409813,586.22609528447,537.657104502206,537.505358919038,489.915742312838,491.895413508222,538.306723612374,524.482697781971,525.297380617312,540.497314618046,553.651001351133,572.890262127131,579.295915632233,593.433963471735,600.818071978398,631.078253796453,673.770172933263,656.884584080609,629.815846190009,604.764922143928,602.89815716667,601.887783334504,607.119089519642,680.592247010276,732.90882566929,744.07848898839,795.010377176532,766.208595304843,732.796675892101,704.053122803292,606.020000353218,613.800891010168,699.4727973729,735.620659368758,773.833814836478,852.693601210238,822.832985144687,854.644447543389,908.327607737888,887.159312119334,874.734992420971,924.705325017578,870.062757274125,882.590411693114,773.67831244041,685.158912079086,747.079075793609,635.834113453375,545.732173884914,538.596421279733,523.303253566625,486.364218052286,457.763498764258,456.770474134153,511.645914227417,537.366025241638,535.260422998774,512.624167936415,505.367056582539,498.024389272952,548.665897626137,524.853102880324,549.017763778302,687.192371582063,797.035868733739,914.581501950319,1008.40844559492,989.230749093012,898.782626973416,907.774816080876,1038.01717800934,1131.04052339079,1096.24019273001,1158.23424818961,1142.75577452818,1092.26803541559,969.182933757807,811.957906525343,690.78055519659,721.049005925333,822.408267022628,924.586068492829,764.743950517584,764.266736107935,903.23583950999,1040.11163745795,1069.7750259381,1038.91860580553,1127.84676583926,1223.00624696244,1127.04887607528,1163.91495610618,1304.08789440242,1327.8963801116,1284.87365263676,1366.98216507831,1313.21681002874,1320.60827898611,1396.81056357945,1544.54721688229,1529.50266232045,1447.7543802292,1482.12009658539,1425.40741491478,1490.55051491282,1468.5834824975,1533.43038754006,1601.68269189836,1488.71957760207,1535.95958746794,1526.61053811009,1476.42362795659,1501.88553793619,1371.35541451187,1267.96906944449,1446.14072271532,1494.89429904127,1301.21575675709,1191.65826510664,1212.13625276692,1207.66552462026,1179.08085906793,1316.13051650981,1414.81165788712,1369.52177111987,1464.83518159519,1690.07590175704,1860.09560645726,1671.98950008632,1496.53216302169,1379.68029103033,1398.94118201812,1419.13757072628,1524.7670474391
0,0,0,0,0,0,0,0,0,0,0,0,0,0,0,0,0,0,0,0,0,0,0,0,0,0,0,7.312381420472e-10,-2.35543229180441e-06,0.00339377988107648,-0.0364388135215391,-0.0312962288386962,-1.38026901569174,3.70026451137068,72.7757738664786,157.540516967999,130.486957674076,201.854213918958,209.599111831661,318.911694250154,434.632872071336,410.22107061448,278.56820990991,356.203688336571,436.527461632101,557.572799245895,620.95843388364,592.518461151525,486.476073568367,388.603805064494,311.550147166982,177.876560262678,76.5405022077647,99.5360078658549,139.322373224485,160.333447406682,179.012384039551,192.210069694651,154.446358159759,127.649472879378,162.451299993398,208.93514069007,267.095824563308,294.857538608837,337.340095830016,436.019354462622,485.138450079399,479.016320161556,460.512946182447,366.327889116988,287.738200562313,232.910956204516,204.794058907196,170.946573895313,220.747091665944,197.028480921134,168.689477886716,198.029926337136,243.548988615033,231.435440211786,197.672502734346,154.3384349848,137.458310882234,144.667834277096,130.68728995455,88.5754367717856,84.0261925800474,83.2060499936667,77.3683665970361,77.3158043130289,77.1562181022028,76.3616328212386,81.2091772625017,99.9110684530694,132.943635563785,158.363860088692,166.943636193912,161.147541071831,165.612605098341,146.187471204575,134.128709274674,118.38972276821,166.566175270391,240.103773820147,230.110693744131,246.662168039991,290.03990965523,351.103143057405,305.311517286658,301.98584234553,455.848084526731,329.034941459266,291.963383995095,422.976463411282,397.15599309378,390.310178183421,523.681911231141,554.325181149127,502.923792895826,518.751735017662,487.021192225835,454.427398752593,472.097472446085,476.724798135622,486.32204693588,507.450836410889,521.530441721047,537.725840008745,549.118121666351,567.775665028634,585.341575355394,631.048880519113,639.251197053672,652.456235292013,645.788371827265,610.829638053184,581.733505376932,573.207485288698,584.869745166745,621.613536707712,644.429527540299,668.570799053928,714.088439135756,711.841415030649,661.990210934213,699.714235293073,642.83951654905,602.836014747477,697.340418966773,687.672530021978,711.195477187798,846.128927195112,883.587771078238,889.075414708139,857.511602132456,926.097069598776,966.581815310115,1017.88459220788,978.106302191516,937.263952629969,830.699553641662,660.41192985745,646.344608772391,637.960478826417,582.527284285893,659.011245333838,587.194526379876,529.770839197161,494.675754213308,459.485441902164,478.093519614964,514.268821236248,566.901894057295,535.907301742209,538.762662542491,518.298878944772,571.605418352688,586.556878967174,595.324979978932,735.792842386826,842.901214147419,844.873330903424,955.215059284285,928.471628986203,830.144509536835,787.373260224013,923.033956822781,1090.70141577063,1078.01944158406,1018.98338135976,1095.12705627836,1044.60083011288,928.503385232299,843.666349478385,672.667653155082,660.943875151843,693.105428285049,763.816022085621,732.928656165868,862.459645219374,1046.81271812292,1021.67203504484,1052.82737709216,1103.81259709208,1241.66451837893,1336.10474327475,1276.77120494814,1306.76553772436,1385.08800497354,1312.96566312521,1368.31664484965,1489.7720167966,1443.985611757,1444.63765911547,1506.3589849379,1522.25320232259,1532.39707987455,1572.28819469837,1619.92884416777,1594.4666922582,1499.88369398196,1404.5449693894,1502.19847120547,1520.96773618644,1417.21233252639,1428.04659556098,1393.41066910861,1508.23896583237,1451.21604862437,1282.5617407697,1260.30004428927,1377.81716197765,1438.31765567389,1360.26843376022,1178.04334351762,1205.49278055231,1215.96110172774,1168.85678805311,1263.07523769433,1321.3291086083,1394.31800860362,1567.52359961324,1759.59645396623,1807.13581357482,1649.9315175722,1429.86542240065,1331.8525835131,1367.18916587686,1473.07705898005,1621.36142189131
0,0,0,0,0,0,0,0,0,0,0,0,0,0,0,0,0,0,0,0,0,0,0,0,0,0,0,0,3.20121581562142e-07,-3.26594352761699e-06,-8.28203358667851e-06,0.00213658696359483,-0.140668823211848,-1.15966901799744,24.1754028295649,91.5230859296992,163.694027902163,203.566622501789,183.08967854804,267.659073434544,307.560961923604,297.34297490865,221.320413875184,306.766678040434,400.732923638153,534.232563068355,581.126735692677,564.546193388711,487.192884840327,416.711010484091,345.878843369354,181.990750142104,86.4705849039342,69.6439332072839,126.759287576402,100.135276535726,104.123068221293,121.105541340432,113.225923878846,151.269581248811,194.064289558426,219.144348427558,288.349021534664,305.629132943827,359.811274483321,424.019632602578,525.349050970594,539.049655408583,465.832610306832,348.479998089619,279.869879898485,247.035624179881,212.985169102828,170.234536854922,217.155766076816,205.42968201423,155.459590618252,199.322877509149,254.176710332316,228.999842456863,189.804830272508,160.048007162603,124.422757420285,105.349427577317,88.895930101907,79.8204692149049,79.1120291546741,76.108560358632,74.3953865643001,73.4965159099229,75.2320109461876,82.278509331666,112.706412412894,168.254632795473,176.431575648662,178.366410378709,204.722136050891,215.927065547212,251.211234746941,220.785770947458,181.776044231777,182.147078411205,187.643499404133,314.417031014968,319.028608790944,275.165240014398,408.132433359031,504.14300259917,473.768236262375,371.757399594416,405.85502600605,339.182805723157,283.711798159313,317.212285269599,337.622390786749,401.257271851448,500.913006300968,505.626848715686,483.163112315951,456.761036991157,444.025144300636,427.950929463847,440.970829533365,446.393423039795,451.461707626907,480.214513808371,495.834606520598,504.890128240938,532.720527002296,564.332481970192,582.555668750745,607.260081260602,628.398253855266,654.965076374163,638.861040378495,614.152718499382,592.456402496012,558.902523481967,563.984875826643,569.852944032009,576.351846797051,593.214176906421,607.65793075776,597.893623669962,583.796421731438,674.165548954019,662.281712157684,565.479434414821,618.271764084218,623.119912630831,659.55470969777,754.167488021208,815.556632670059,859.32276375554,814.057358160482,848.192206994724,890.525712964055,968.341000163193,1049.3487367438,977.923840614698,832.692102067712,765.848449718165,661.659867639262,593.262415713595,610.657042486207,712.915879255367,609.154173204176,599.929758969563,560.935924280284,495.694420883285,504.615111678844,512.936263420081,567.456361716492,601.620085407657,568.987263257626,538.735750098836,584.815967928031,628.391205136127,659.724139447601,788.912777408393,857.003145390996,759.114015923406,905.344300039496,871.739675601032,787.205994845445,722.231728928935,846.502725496798,970.67219606628,955.483357326488,885.615396329933,1073.61005912873,974.337579785671,789.124553797826,706.82031987658,680.94887510821,788.649942635745,713.55101910139,680.20680156519,690.740474141435,822.32490919108,945.047003715548,863.937838670221,847.866057451723,1029.58326149063,1185.31578811318,1236.31558950931,1232.07554199758,1344.40661971051,1321.99897599499,1166.04501005946,1244.60798531375,1404.01823979328,1515.09678962828,1448.4044261728,1361.59538816671,1365.55783580852,1344.03715014458,1474.31023300023,1557.32219480454,1515.00289154497,1407.66969019879,1349.92857043106,1406.25537771444,1420.8388530877,1318.05934503499,1320.2325118432,1456.87993847592,1569.85331454536,1486.53354416341,1285.99041884176,1228.64442470667,1331.32046395685,1347.19791413756,1318.5437820967,1158.82341611169,1194.53457763482,1219.61505397876,1142.29702608537,1193.62001762297,1288.29040301279,1406.15539521998,1501.92377940723,1645.32575488592,1647.34833118933,1626.33148130831,1398.40102788222,1299.23773520924,1390.60675044645,1535.38876772261,1678.19174489681
0,0,0,0,0,0,0,0,0,0,0,0,0,0,0,0,0,0,0,0,0,0,0,0,0,0,0,0,0,0,4.34233352495601e-08,3.03116066502054e-05,-0.0146919710992147,-0.275504982470481,0.404294628157225,52.7786392308539,162.680833756949,207.406130375059,132.435405539186,197.611486127324,234.988729980663,174.083445209923,232.458280343459,355.333390418667,415.879576798898,479.368299191248,439.802749864859,439.780680743463,400.14700702733,286.9985395946,252.180377462585,198.031156130026,82.5835681218622,62.8319113077653,83.1822929849815,103.350421946947,119.071939253493,117.952044339711,145.512458066585,156.938215529304,214.29422694699,275.412680847703,312.880817166846,368.55229569244,383.791836455999,446.172352385396,504.807727453101,476.073081892305,450.530661407432,371.00640449282,315.315197668736,266.561216905251,226.40445599656,169.363393023911,168.503446617047,213.417286720502,171.229591224633,170.604717473111,231.264582425084,183.470653275852,140.200295302862,122.195192027421,99.5948248596888,93.3100440057889,86.5239727265132,78.1249500869761,74.5087835562824,73.2586577153601,72.0275847176243,73.2090859113217,76.853681026694,99.9781305978826,130.311282694814,186.128276373482,210.505071264225,229.869014307591,280.193069718986,307.808809195276,318.712691016457,268.147511276212,201.472784781642,293.470541946742,216.830829196959,294.107289096461,369.848980614638,353.962642358976,422.779574399933,436.416220092507,396.605411146686,367.742919649886,349.748138900348,309.405278720718,308.627220289034,318.291382539106,372.675687881376,430.388016551779,468.568021947149,457.500390479342,469.557562241795,439.372338704611,413.498974427444,404.938118437835,422.613202157612,441.661046695056,469.051632339036,476.360071774203,496.264573574145,562.379705246235,621.951403779149,634.635364000576,649.164614329721,633.854862293318,634.319343421112,660.399111925212,640.050042436132,604.536180119208,586.516129140158,562.676505140147,547.104567786576,547.875256517946,546.783115576229,553.488234411175,550.373785792747,550.466807208312,554.959895188585,604.761401041486,596.521116423649,549.502950589219,596.1467324673,591.228196600514,620.859503417022,670.174914925161,732.967013948841,801.36525340123,774.329689731554,780.554821557527,793.151167604543,920.613606046946,1025.598422134,1007.29204129053,881.105722050856,878.190119992462,766.979815862603,638.788751000261,633.416462471257,727.373757376583,663.485052538141,669.220706510476,579.398507620378,517.882645984676,524.754131006204,548.05698801422,550.98549466346,593.745456685328,575.66534896327,522.915822053996,586.246037279245,665.472769354524,715.813292935349,830.239809485558,848.192868599498,701.593204212129,762.648744859248,779.201187097694,691.54836271302,669.86106412787,804.743498742477,887.867594410113,875.328819170224,792.770887082784,965.15410777206,960.79045337514,697.438449457965,636.498840620304,702.548255007432,816.938143363488,837.835258328469,785.183154043106,769.775152310807,791.107330789516,780.517218636812,733.776666449981,770.998540951958,934.443922087708,1032.04564831947,1086.16469862699,1082.63062204298,1231.35111660741,1175.50854075188,1054.4342633072,1141.76989358042,1270.68900759718,1380.16405043176,1333.26388281025,1199.12042782181,1210.78248348982,1201.36492120677,1354.88864925882,1403.50556367408,1422.60568408226,1426.9276087861,1328.58662706269,1318.78391105526,1310.40908633688,1244.27952760187,1348.68935774391,1529.92960705019,1478.15740599397,1408.9856481043,1344.38669014284,1185.09709679277,1259.61987599604,1302.58561136669,1276.07412048175,1137.1638989021,1160.55551725966,1188.41997928014,1155.01064990727,1207.59115510945,1314.14559114771,1365.72680669095,1378.10159895498,1505.92959682772,1494.17762083992,1530.80577636369,1359.07348270134,1280.28116471553,1391.92360325881,1575.33551922218,1708.13711349423
0,0,0,0,0,0,0,0,0,0,0,0,0,0,0,0,0,0,0,0,0,0,0,0,0,0,0,0,0,0,0,-1.35021200695563e-06,0.00251840612961281,-0.0600247048434415,-0.534012837602337,4.42133243410091,74.6201056305384,129.648500768248,132.240799936939,218.777554790039,139.574453512013,186.911238236697,305.549551960894,416.878023507292,444.113723438017,472.606200606716,334.032807120267,324.731470575169,383.232612263669,280.043818287907,185.346770286318,190.132879494695,97.6769483349493,54.6433277101809,88.0508690093276,167.527892025486,194.312006345263,197.997790690328,196.91762429379,195.937563101852,178.032588490361,231.501308699985,292.239172681156,349.863228351387,348.617868389866,450.598208067606,445.878270211804,398.349486859238,393.873415043042,366.487855216097,295.070623506669,267.679322656438,230.909100515061,201.190793763173,146.22681728574,184.909066566897,192.071375674987,140.683957437505,177.983952670543,143.1132449614,105.511201694104,87.3232120557236,90.4078102634261,87.8735738233372,82.5259934067365,75.7867992987985,72.0155383431815,70.3955636432251,70.9748473953609,77.5362419085801,92.0688073754374,153.188159232238,172.138249403201,167.0342135649,259.60313095972,338.46031805508,363.757107728482,424.81021181747,385.120569897641,283.512379336661,268.502372280767,368.495562040376,229.899483249955,262.249495539699,393.081188786894,402.757996011794,394.005718298981,365.280561533625,385.669061646269,390.927703359904,330.668756174492,349.031480384749,347.562404840138,369.912431551218,415.007273310648,430.31742953434,442.979927035262,440.707033714679,443.79522305962,401.636011727079,393.779319914389,456.910719276159,491.779962143657,535.808724319408,559.150503621983,561.864575963486,582.806202008959,645.28034088957,658.20188219908,681.501187285842,697.952852965581,673.878503163217,679.441237586559,689.558480940516,651.424641983839,612.09119394891,590.888975794111,567.442770429281,544.438226509954,536.195716905912,528.848107313228,524.746386958829,524.40312983684,522.924470876946,520.230998686832,550.671938256705,546.740999290606,553.080806400644,584.904771276942,602.883084446985,615.672499105595,647.401596754901,684.087466983002,708.703976088555,757.346672959838,731.082720090084,777.404454019269,949.433407556068,971.361533413817,1035.97204839114,981.358277122583,889.062477720311,772.455262334958,705.671085408258,684.25382712095,722.890228705211,743.108351466548,718.391415481207,584.54954268393,585.970289087189,561.644873189879,635.367951336814,628.825968424994,577.769289315009,531.384716224358,491.552052270198,523.808492293744,616.490054141932,699.836838870063,810.089662143513,762.977628001248,667.700472288148,691.55706395689,698.336641627779,594.345300151589,594.980539462335,707.360059583109,804.805711963719,813.606200727901,720.673940057895,844.923483557088,888.7381736117,710.977049938775,758.71585706591,856.787710038604,840.81915708075,919.796414620699,902.613053914979,855.615257477322,763.770110267754,725.211858586962,695.429569628638,725.801837982547,813.462851032889,912.512435449027,928.924330918002,1084.20678010594,1142.93210413007,987.942989478144,934.204482645524,1050.79339264927,1161.62469601214,1343.9146485137,1373.66211087216,1193.05349098655,1082.23938867221,1177.23229617882,1323.65979003788,1299.59212833958,1372.40930030007,1497.25347699288,1372.69265761388,1280.71529735599,1246.84375266686,1356.16944925641,1475.09179290667,1467.72179893775,1403.12349816643,1308.47008027725,1330.27171398156,1185.32316869792,1186.85326780399,1243.80176182591,1256.2007361422,1154.34654904743,1151.81558626994,1155.56586276255,1131.64185284689,1251.71488363295,1405.8811406483,1358.50182572432,1293.25839495791,1385.96996606451,1379.58249363828,1443.94288976991,1319.66730295681,1268.54235749245,1386.81719989839,1562.44798564109,1653.05072032605
0,0,0,0,0,0,0,0,0,0,0,0,0,0,0,0,0,0,0,0,0,0,0,0,0,0,0,0,0,0,0,1.46877479732085e-07,-4.14491221817455e-06,0.00484339419324331,-0.123771684450191,-0.684212369824454,11.2764312041189,75.6011186219864,199.246154428328,149.243206056298,129.037640791991,229.78641446394,318.698326845707,300.266588563256,309.84784430594,419.227064732667,336.366947383243,317.484208505583,432.437458364339,336.927970544356,217.386454850106,155.938337430229,98.7521524790068,51.7894662097154,80.496552026225,123.988391924573,148.285548451723,190.831157639879,230.668744265834,227.33501236046,201.244041377639,208.954614071502,267.130552350422,299.856112653463,381.159142361864,457.997567098928,426.004239183868,367.187243100444,357.63131939059,394.713447222454,335.690276314041,263.957660226559,236.743734205239,235.409778280782,183.410073267349,150.628754054522,199.486299325922,128.486519123828,113.656185576443,104.119275592546,86.9574266473066,80.4255229136579,85.3787104844895,83.0775482189659,77.6466246055485,72.1099154231676,69.7968985004475,67.0728859657615,71.326495940156,89.5700437230435,124.67611179401,184.952469050934,215.808104408051,237.546855861427,323.573097871425,461.892569109459,537.476376134619,574.833211982999,490.659355192192,390.322561529118,422.427269033436,351.709578969215,214.426185614414,296.354405988758,360.673493988496,364.299443636387,385.988503296899,345.389177985363,381.711457638737,373.535932561997,351.139659119411,392.854162150231,397.320536749967,404.545267251899,403.077820399135,406.715517697409,409.40777072756,420.037892078514,393.388728917209,367.752235573773,434.357615882938,502.994646553965,501.880485826214,534.531666943967,564.164534420573,584.437817336404,606.271272885223,565.870624516283,586.102795298837,633.681424533962,655.636290785924,659.255894271057,664.790136827175,675.701655384443,679.723169831345,668.310529920381,666.3859837589,617.477722938994,556.740604303696,530.16620117738,522.044916214813,504.466350115963,498.87013928145,496.912075415616,507.143800905234,509.803445824613,513.508533491784,552.82193990622,572.682474417717,631.616889459778,607.789620005287,632.865154070263,654.985874925306,659.682023428462,720.540915983988,675.729925251081,762.548509293478,835.355957695308,912.858778633255,1014.13338880536,1019.97813333758,950.110346740856,843.669178195727,804.394646392476,790.012889889281,782.593211305285,700.461603097737,624.426367101628,584.321781893133,658.753622402863,597.856546171826,679.130708700758,628.575633537397,594.557504394414,542.519637435568,467.99824389343,498.899075979401,527.340727991713,646.260534600758,739.79460281499,699.53083101587,592.630777704349,619.106276884172,641.706134207861,534.157350721524,526.115951516818,595.437728873801,660.899200117188,702.783453351907,666.214577950003,725.345578068249,801.487209808775,613.774399237655,778.546736517481,1000.04140107136,973.874267040155,968.204318499402,884.938196825537,742.519032611096,671.946361435917,645.401362578995,670.183399484015,666.490111503727,804.351594305173,820.211156772955,842.766665729407,1025.54891934847,1010.322700721,855.844277581028,961.582480069296,1065.90781134723,1218.92066436685,1224.88388038869,1211.91159666815,1192.62418032991,1046.55215224549,1131.25141261437,1164.93485515396,1190.54980028303,1292.15885614822,1443.54884985458,1350.77909361232,1250.38069038749,1222.09190411963,1349.80597279348,1422.7372285365,1376.69777326864,1299.31679521112,1231.53816358556,1263.10904555976,1170.26903072833,1139.08558681452,1189.36152741718,1232.80886857454,1169.66696621087,1106.06277498327,1095.16987816422,1105.33225751458,1219.06519110102,1354.05537442609,1326.97505975306,1219.1066803584,1269.317630422,1344.88192156836,1423.20762935786,1328.32999340003,1255.57474877971,1403.2672103909,1571.25248303572,1622.30813063197
0,0,0,0,0,0,0,0,0,0,0,0,0,0,0,0,0,0,0,0,0,0,0,0,0,0,0,0,0,0,0,0,8.80691090954827e-07,0.000126144454954207,0.00964314859459331,-0.281899908948256,-3.55957070593128,50.6324390556021,191.86001134573,133.385115572981,136.318416822438,170.580654203872,227.032712751226,173.278617435752,209.052370793793,337.98918615487,329.173954197426,277.678057113808,335.361909739152,242.482413692225,242.838078686223,181.031837395452,123.100054156604,56.4315820621611,66.9655677663402,130.872238266647,149.159792012656,172.459008735672,203.531840872933,251.442013599773,275.453301380601,284.345423445648,283.282684163422,321.885114022049,403.486698726295,441.673208159162,410.358066805471,368.302356983991,333.072568524058,372.953053360174,362.60652065055,272.779047138443,231.424281916025,216.655434649223,212.271597006449,130.778247149931,169.584665195726,123.094882002555,98.4039146042812,92.1705892410271,81.7098184897303,76.6176323289687,78.4086769539384,77.9394998382251,72.5090196158187,67.6961737366579,66.1251149693551,66.9687889864139,97.6384025912787,122.027987993663,196.338674056709,267.12290104607,321.919001456412,343.366042115137,413.806209591553,607.242116413463,633.59283511903,561.346182109219,501.435016248525,489.783839130303,403.617164951814,293.347007049747,226.43093502038,226.695235995751,273.460911238041,343.862949518296,359.75967205201,334.642702878938,346.2069506928,354.911835392483,376.152043601049,390.185842250967,379.242453238345,374.489128830641,368.107048918414,371.955910059169,376.714064783346,394.481177744459,375.238715163354,341.05140676185,403.099621341156,449.211513066539,446.934029563779,478.977139534669,494.281323399299,510.382164964001,513.716205585351,471.892850431935,517.757485509105,520.553437855193,536.82369485631,553.299080104957,577.665656367218,608.831057852136,656.972207967606,653.569270249686,652.939269173424,658.744156055426,590.992240951768,520.054943434029,504.336028546116,492.417404292999,483.182021311408,481.51209246988,497.412765252992,484.673041311738,488.078413324163,518.119653841708,573.45881417722,628.98444838782,587.597556611792,600.675100275339,644.721122423869,634.100620962143,634.202689058353,631.442291700018,709.545352896938,756.577790061869,849.747445035591,921.46047869434,1022.40624301445,1031.08046439896,945.025518217587,904.885385303969,885.311284755308,839.768579229267,747.588247114326,717.355390204639,648.499732750687,722.896693061348,660.05854740363,706.215455311424,658.289930871535,535.202248670794,526.222211102585,479.110389306266,476.305075881401,483.80876549154,521.742693028213,567.597609561802,581.950704183661,515.722280520927,540.614426654237,572.916922844149,494.930055502092,499.993521263684,533.797881292106,540.722125851442,587.399603879821,591.875669741124,612.006778531851,602.335905646254,612.477449332744,845.1536813421,963.513832580211,1004.44252013246,944.27473632976,829.917148246703,734.021817421887,671.073451197584,606.115910357555,595.722782500993,630.902228862114,756.219158305122,757.704152343467,793.295558890297,863.813718617992,830.490823491452,860.024668853131,1006.07092048931,1126.31153995846,1146.7615053823,1076.83779330594,1033.81616396743,1052.73812840029,946.61374863127,1003.87777523974,1090.01016167557,1196.79157462826,1333.56738174718,1417.1396172464,1291.51967183355,1202.56142080128,1191.44325160661,1284.36622618997,1282.3449042464,1287.89493509356,1226.18632065597,1164.54474317635,1189.89499068877,1158.61017023069,1098.55082981658,1140.24253687083,1176.68925384118,1128.12614513896,1050.55605641411,1077.17361730184,1170.20542529319,1279.80430147588,1293.31206836149,1246.92676691654,1188.28831584638,1277.22865013794,1352.02043247306,1353.28160785477,1335.90204477362,1241.53567271142,1363.32816927506,1563.69317893128,1603.99511325315
0,0,0,0,0,0,0,0,0,0,0,0,0,0,0,0,0,0,0,0,0,0,0,0,0,0,0,0,0,0,0,0,0,1.27474067251494e-06,0.000148069436247058,0.0113824173496518,-1.81247398522351,10.2899070755149,119.553040039449,129.66678307597,139.518127749223,161.247397165622,192.260227392442,115.525139515313,251.923342512041,300.990450658902,288.11478858213,241.072008972957,233.27085746472,186.152478381807,214.604450404,174.341437966173,130.191210912763,72.354311971604,60.5750700282227,124.133727076362,181.995479313339,239.122679520757,263.592133404473,271.84731002068,295.846831442052,291.096193224807,264.608482832509,281.989217127264,358.916195463147,384.808693007042,380.096993035892,353.784728449276,323.734758842475,334.934547011934,376.736157594158,275.69373629215,211.930243326588,197.612997221564,203.762122874578,125.077816695367,127.728815011588,109.518986349608,94.9298501528461,90.271620207896,80.8746598975083,74.6656902023876,72.6643491823358,71.3266714552894,67.423613489175,65.3598631355424,60.9732243175409,116.625418442604,237.172020048214,248.742147956805,275.737982908058,358.8096059658,471.82419017153,558.944946364807,574.08933364158,597.688408046708,488.453826731857,442.241197015883,393.341483842605,385.072984315199,319.454013946542,240.483252819638,221.608286388691,244.600975792809,280.834537703047,317.73432901876,340.685863250835,315.061534591502,322.3727147707,339.554243235044,349.570326851335,348.539671016845,343.987873036764,343.017413269562,336.915991112064,342.422269347112,347.992221626314,354.389241221732,361.009307302728,326.762010040896,355.332545425776,394.851852733541,401.161352876155,424.410512963476,438.723130455591,434.916230132275,430.527111405357,408.878029590666,431.289186650042,456.042207246645,461.452610318135,465.099391677178,508.393313255344,548.642608665056,581.32962977356,578.286439104618,593.476523144734,614.105981099522,598.366161627408,550.320930631313,546.273445553653,523.304785078916,461.825376400854,489.767078877332,480.991508831724,461.710040449232,480.139554443818,526.473872825241,585.097923659022,574.455927177678,573.919672245293,616.213535655209,632.761588757812,607.255780804533,601.333449167187,646.041524647744,670.187756142525,684.169540473075,752.41146580133,886.605154142155,1046.41590405784,1069.64172499218,1017.28008249656,991.6670819117,965.050118911933,892.700977566212,828.070175611327,803.701700144459,734.140840608945,775.402622400631,731.086781566012,736.688964172992,657.276765354983,525.781635286442,478.330024938331,457.668219658216,459.333496461399,482.012147160048,446.832906386825,472.87193821295,497.888723488973,457.957192898936,475.037414860573,492.254324722712,466.314153350626,463.335936031551,474.099655507784,492.747072561073,518.977969839,535.071974241544,515.540751799874,463.391867960015,563.868358669297,723.556935143898,840.038215699807,961.808181102284,951.42662241627,878.865930941832,766.184973393473,713.746774946501,637.403056478136,569.973161564039,601.235335736798,667.569406153811,709.691160918303,746.981644090907,775.601425531583,759.12266015511,860.63433464852,1065.34444549218,1060.34544644557,993.057310180804,1003.00382664133,931.221615727605,914.41882190144,921.157964764086,1050.89834695911,1215.43590304168,1312.72057343157,1447.75555796086,1462.00952050833,1321.34586995464,1179.74854240285,1145.18862137126,1202.74473833817,1173.44274671409,1219.81019858567,1201.82120186714,1125.38924514142,1131.64027905617,1220.71279323442,1114.25510776017,1083.90158354678,1164.90053734291,1067.26168863553,1041.68337208031,1133.01762099714,1239.91834690902,1270.51794792333,1226.63809418175,1180.32177088906,1165.73743176608,1299.60004207171,1266.332095258,1275.50782017406,1332.9195912038,1232.25618414474,1343.74275188848,1511.64627665864,1568.63134033614
0,0,0,0,0,0,0,0,0,0,0,0,0,0,0,0,0,0,0,0,0,0,0,0,0,0,0,0,0,0,0,0,0,0,1.73014983663079e-06,0.000814468706812112,-0.236825235122332,-1.86674779717623,51.965203457773,87.0527167090682,66.0963840350585,93.6445653578388,143.719171441834,158.788349273157,255.39255611728,277.043079430312,235.25529480679,216.317477409695,199.630125579584,166.11233148918,177.980038789439,160.032728459291,137.783526777451,73.6733647103238,56.6930337086674,105.698176722331,184.05773502024,286.957470610779,243.775926138177,234.183619684024,254.034546279283,258.339886912336,240.296532087531,255.998802557204,328.10922841104,355.254501004172,363.221078340545,333.039248299173,302.236048297195,329.875569988125,364.460894068838,268.508354724067,225.23695229801,190.085995265138,199.50799691003,135.076236931262,105.393818463848,98.0659366717147,88.65323281509,87.0567332996687,79.7797167121361,72.7890934154739,68.3954182071961,66.1458080217532,63.9378033149318,60.4946715026636,68.1566845482942,132.445708352378,260.373798506556,354.298718263201,353.222796270039,462.075193407196,586.438320809119,609.282519853521,547.250920853806,463.1650309022,387.908720647093,359.196348660803,349.277688053951,328.12306414534,334.41133738632,249.267230754854,246.212346331701,293.486897172891,326.955618885736,308.241444726001,305.615135650607,285.618522897205,307.737642689599,309.58625844392,320.543516741601,311.116330597449,311.725747436814,312.229631855353,314.247001884549,315.654015057592,321.117721667273,323.383880724174,337.298919936417,318.166736264128,326.281344065829,336.938727320914,341.242509375191,374.193825064571,373.038310629648,361.893093413261,368.680460712357,391.569027490972,410.058329614839,419.293524494822,406.004570705042,417.657489170129,450.027258861361,486.532455243698,518.308018790768,549.280233811706,555.013711890869,554.000047178282,603.819895799563,604.244704690349,574.525684685823,544.018453668837,461.421051127395,454.707167840321,450.512477878699,529.072124856846,533.280784186485,562.757888129522,569.612562977215,556.273450779945,614.409517223418,560.507931385502,561.589893530733,573.617216784515,656.896827179745,707.847796074415,648.699834788036,657.792892853242,790.625244854663,903.573637102476,921.264357049042,908.672375402238,899.197878348026,1021.15592643107,1019.88394748839,916.954202159867,899.257741929954,858.814531547894,811.824853708635,807.553289143753,719.282212546246,639.27203190227,633.140151825777,565.372121895665,501.794267553457,448.15126763233,434.013327828271,444.573508318769,430.806256771917,441.629071769814,445.569522704026,433.810498232831,436.825706076746,439.191802330147,436.690775293839,437.187894519339,451.811001294922,467.003807425751,479.801352532657,500.818119248958,479.702527287234,446.251727085733,530.795441441111,630.841641486899,835.184349812259,904.197294114343,865.377697693645,849.685372388368,752.631011752695,752.266804349489,712.558112245711,570.674257325927,597.657567783982,614.313948963905,656.971733380852,672.309231242796,705.415885556684,799.17958699039,923.343881606502,1028.5090184697,1005.40384284866,901.259296169795,1001.61279679488,915.510051014926,827.167476353668,925.28306653048,1055.73650520521,1331.39820436383,1500.69409063796,1553.66825026969,1545.04718646234,1471.91388598412,1261.23684677423,1095.11463227927,1077.5963495805,1099.70986011756,1127.76319518701,1185.44089639472,1120.31900928888,1112.66684486502,1269.97613141558,1207.36267365838,1066.34653402487,1074.16812597184,1032.40638642339,1082.27032014176,1161.69984821253,1209.84002929946,1203.47025159474,1154.46840367958,1128.20878815384,1160.34832111507,1267.78503727949,1192.15422951485,1242.79974618705,1266.67450161702,1196.9540742478,1269.44219177365,1367.85861085737,1433.56948478792
0,0,0,0,0,0,0,0,0,0,0,0,0,0,0,0,0,0,0,0,0,0,0,0,0,0,0,0,0,0,0,0,0,0,0,-6.93495645111831e-06,-0.000682873172938202,-0.777327505318572,8.2755897736481,20.0882066188075,4.61307629670759,6.70658795252358,48.6994989831272,139.951711143971,157.353236626695,220.141638574398,238.131807556837,196.242002506463,168.253457477393,150.563874890188,153.257153413215,128.195098436756,134.90276284589,77.1751659851867,47.8956466780799,122.767679192451,236.484159172746,283.70630465333,211.213497204367,206.223800016795,246.485538210245,266.616355999563,213.894890176205,254.148507415309,315.217169407275,328.298879679725,355.554444700337,328.288898975719,271.843449147402,307.943440435091,303.938345533632,257.137799055181,266.990025013006,194.121516917881,189.565303190054,154.461584495463,96.2966920325291,90.1596590742663,83.7335605212337,81.5890904088877,76.7223908716464,69.7941891691648,64.7175075504151,63.2077400601612,61.2293125243795,64.8142492135712,144.639819071168,205.088642888849,318.220543672126,424.842524254357,441.862735531383,532.566798502869,547.031380695506,490.267065352926,417.888495419857,366.153539320778,345.741780623477,327.898803610377,327.481805302665,305.698862140436,289.181978385481,280.621915202528,302.141514301172,309.216518482841,316.615935900558,284.496689984532,281.267242671169,270.071457231132,274.500892213334,281.667893521405,296.514983215075,286.998013468399,289.410374172486,294.568038917921,295.618384558973,291.803367030884,301.527397344688,305.965031719885,315.205461884926,292.131180049403,306.982138411591,299.95127487322,295.030173196366,307.978112349566,311.814563877791,319.700390250724,344.20240856215,353.640140281704,367.123766522603,370.329997200999,374.415838602805,389.854173047837,415.630087815644,433.050553812356,465.586414104226,513.921913398608,510.50364593152,584.849657600414,645.666245133422,575.085158489488,522.000327207304,531.027372509676,450.099988429578,403.385191587824,448.637319117058,500.892337794328,515.223307513851,511.692671432688,519.880451185053,603.273202217292,581.071859794109,551.196790160667,604.519529410106,633.218215650428,694.342133827777,735.727237905164,661.59051200606,644.179729722422,759.732962445318,800.676312599971,804.897658115225,753.430114588222,757.804817943962,925.345029854846,947.942858871995,966.386863088723,953.612183658137,894.012833463178,859.013259373512,776.95986460769,770.595538407723,666.545636066629,586.933748280749,589.565197996261,578.06547132305,502.583155472038,436.375930237782,406.4001240171,418.020543837438,414.286798644788,418.899622983146,420.93896175702,418.622722102889,417.935270491844,422.049155412149,426.159808295902,438.23380810345,448.451097958684,452.958367512472,459.604974115399,441.94708169016,436.643058527439,501.772812700654,574.368373794226,697.592427675523,759.25805350874,749.365498101871,799.801884244213,798.07080122472,773.025889031891,707.088134231017,535.185964426166,560.315586244388,581.565067977405,623.578899177776,659.027336957473,709.771954425316,796.178617274757,935.440769818278,921.679126766734,982.338456279729,888.010308857747,936.608026596665,973.43063434341,781.700833379661,908.085054087071,1112.60402698887,1379.98391781299,1415.05258683758,1391.31482522069,1399.2270869031,1452.89595746173,1346.30788911705,1188.15813687505,1054.44427593095,1018.63276758044,1097.6033279033,1174.63139791191,1066.20485062439,1117.65281124897,1235.70560302165,1253.68171935125,1110.77278263956,993.69655969351,1016.09458393723,1108.35157899599,1141.67062361886,1123.77996233759,1126.6352576286,1112.04058928962,1102.56198196003,1134.97592934562,1183.5614174045,1150.90766236314,1185.94262838614,1149.29549510409,1178.89335489847,1271.87915482405,1302.76795829171,1410.05703932508
0,0,0,0,0,0,0,0,0,0,0,0,0,0,0,0,0,0,0,0,0,0,0,0,0,0,0,0,0,0,0,0,0,0,0,4.18878593405679e-07,0.00244324370326472,-0.0935723600292827,0.691469670523487,1.28666898853433,-0.521528222207101,-2.07292408485552,3.85185257248447,103.730365587248,128.831006634514,212.281006074689,269.266705719324,192.412231534295,161.87155676367,141.417422539275,140.454378536843,132.775343330652,79.8640684378199,43.0733135689576,48.072413813703,150.064931703805,220.939358383858,210.781230933669,215.919952596203,223.938502333665,282.308838546609,218.469066397732,227.157747691311,294.804677009707,308.955172702075,315.320859695706,334.818540662026,315.97991600768,260.808940006313,270.90996887139,239.050654746281,248.871642490466,268.755700819135,189.60933812478,151.606143223291,147.932236469906,90.8204073335589,84.7312678494636,80.2231207906684,75.6510191122603,71.2977155112061,66.6727270427205,61.9555719073402,59.3901701784273,56.3520689930197,131.940247673493,208.539241812595,304.03029794087,398.003157962947,452.309262997633,476.396787515707,469.106964453771,416.64876784816,349.940123546835,325.072339888312,320.928469384113,302.824373446684,304.879032529241,309.2174400152,310.534307271784,269.578275300068,295.086366255676,279.702192265421,271.319241159946,280.419963297983,266.827377940562,274.997817924784,257.882686606634,253.403728491156,276.853548976899,276.262142445347,266.408669683189,268.259542368509,274.277079754628,273.977666362748,271.046091979467,280.314932374674,285.024586565689,290.338192452979,277.450866861903,290.86045715864,275.391023200061,268.573128306795,274.864689227279,284.959205142632,286.782159581277,295.570211202665,313.402866013291,332.981194611319,344.920610351952,348.046991863042,357.524907723164,382.72662668037,389.119887063295,441.122449193691,475.424129844592,496.988170804344,560.172255894601,530.566401456309,477.236985499335,436.430078373871,419.938272193006,398.195297828079,413.743395356358,457.741910101099,444.943506263426,440.654572307358,439.941020941886,484.703983833076,540.044812732848,498.884982589995,642.381239370572,758.092253203975,786.781506000824,763.006297813327,750.806630848,705.64610992364,615.500246827295,686.563412190625,721.109813100151,753.564121545683,669.224052894911,725.40094789448,806.133671663925,811.097754936404,932.547406685783,916.23338307255,825.218565650486,747.907364516778,668.423621306968,765.959839715447,763.404500680983,615.099353889861,516.773085571543,531.638377576931,487.418911229536,458.344732935575,396.576180205502,404.823530718849,397.950156376216,403.65570527626,409.228918634133,406.678239162357,404.870738629543,411.072901787558,415.239250804937,422.051182624805,429.316906155024,430.696633176096,432.717184515945,422.167873488159,430.738105449652,482.3666539872,543.583552201343,606.471582717503,647.679098624733,661.080677064376,734.166687183579,833.378238197689,735.704248980298,568.838760454083,519.039491315522,621.031304779855,620.610752488146,637.409865216695,674.623232409188,730.564027750677,819.691507413988,875.184666589663,790.735772549846,833.04589706915,894.870327004728,834.554365755804,896.081818551919,738.202373817638,916.326992630654,1001.31965131415,1219.30681535547,1205.86792231999,1243.30232347017,1272.69380820352,1244.66448243596,1316.1909622116,1330.07132695551,1187.50332974396,1050.53923830182,1059.39391151853,1064.14721720544,1004.36632039392,1097.82234835445,1143.77737578369,1106.94412732982,1005.07370020025,980.014513434592,1047.40935520545,1058.86856421416,1099.23032581778,1075.59208056148,1067.08236520575,1072.98467726664,1074.51845408533,1104.98519311286,1158.61831895908,1098.36923933509,1121.54980015002,1171.59413418998,1204.55562996245,1377.69256160116,1452.04356800671,1541.34823151884
0,0,0,0,0,0,0,0,0,0,0,0,0,0,0,0,0,0,0,0,0,0,0,0,0,0,0,0,0,0,0,0,0,0,0,2.75366553237832e-08,-1.46078629455659e-05,0.0129055461737771,-0.137877723555588,-0.278362185435715,-0.0265891433747822,-0.109970586791776,-2.24288677674116,27.9243132331848,101.209933580034,250.882716283254,257.141709789247,165.112062959304,154.348286240574,119.340610993393,112.280231800964,124.546164875993,59.8110405148533,32.1669605103129,65.3366173071209,131.80386332069,142.576785372464,149.39343888534,230.365233814545,210.25358045763,252.705070468378,202.233152432235,299.999925974785,305.333360995062,283.317093316885,283.587216622143,294.236793524413,274.341121816397,248.655528880771,276.987085096465,221.857614302871,236.122068831471,208.465545703956,209.581416115232,157.020658415266,121.222502132118,91.4258798510783,80.6949540766569,75.9112592163743,70.768156591049,67.7186622824518,63.9072845693363,58.9872312274258,57.9129566866166,55.3560168769643,177.64382500613,240.779037476961,302.386344031901,318.798764582401,375.020426140015,340.798951136691,331.64027279652,305.770955647677,298.817578765907,303.997266355294,297.378226912817,280.532278086823,289.007599607799,284.120801066066,292.672824847541,265.543083080279,258.053874879037,243.565024293099,240.95855205364,257.451551719653,259.2896188177,269.095099404489,250.277757537309,241.089956765384,260.34625866021,254.417394231899,249.597584163335,248.776912333633,252.854455098528,257.526265717473,252.224352143067,255.642410214459,269.614007936509,277.604205052757,265.536840787072,275.946538589525,261.441156383726,256.664588409625,260.905787463701,271.262938006074,273.363474895571,273.807875877553,286.569357200023,306.444344010391,318.069991362086,316.396630545461,321.893778336912,337.402080423109,375.579731462496,421.598805798647,441.680068142958,472.654821243355,481.423131244529,438.047641816804,433.909137883195,415.757373216508,393.662670214828,384.715513571429,410.580718227092,456.938073555029,461.381812005883,420.962995637535,450.824400921661,535.474282936597,490.558037605502,493.052295656292,657.217238371187,744.757622347137,743.825921901711,736.216326154328,665.581896323474,679.756746793963,592.804705714578,635.333849072196,691.445410858429,694.392817979751,627.942821270922,710.638824674666,703.164821977193,675.550956043399,818.157600634969,840.889450189784,752.113206671628,644.765223466779,577.577042127797,638.207451594721,770.217709837884,679.818818935782,570.903625371832,463.274390537204,437.784964006457,414.303394551191,387.625752830903,387.249156929293,388.234240280097,393.487446641511,396.983829448839,394.764688148979,394.624381813254,399.712721535888,403.532695576452,407.29101215228,415.102715792655,419.161275234422,419.932061597328,409.336324402543,423.90564004545,489.710785945679,535.09903349081,568.446139792272,596.157335706145,605.590671728384,610.543931347308,683.949260878573,646.189639286983,497.11864321014,555.184383685343,740.118222534233,741.876251469403,714.41701956834,737.524260068246,776.580936598306,860.932215612732,907.050822492728,798.465180946469,688.281837980912,754.220230621875,754.930423913671,846.14429227683,732.089192119348,801.32567739952,923.420568902399,1075.52579977925,1062.3050241472,1100.90494415134,1107.74466399015,1103.99998298598,1278.1942280526,1439.48296816104,1351.57056467412,1134.4886739154,929.694785128817,955.790207517965,948.055615704225,1031.9760903958,1020.85184367859,986.572867988422,933.116019613772,995.951922597039,1013.99170033858,1002.15735862388,1050.98626437604,1058.42817285936,1029.74400335267,1044.08731424949,1051.40174059065,1099.33104825832,1155.75783303834,1090.84842234091,1197.69249328889,1286.47893168618,1246.84355979984,1403.52812837969,1547.03407475863,1594.2478795552
0,0,0,0,0,0,0,0,0,0,0,0,0,0,0,0,0,0,0,0,0,0,0,0,0,0,0,0,0,0,0,0,0,0,0,0,1.78164576263605e-06,-1.75978158149311e-05,-6.10549812974033e-05,5.74056158422343e-06,-3.05170131548957e-05,0.011401943537454,-0.32912080439391,-1.80903262971634,36.4588733602658,179.214860520342,232.389986185288,162.969044141029,127.656944350142,128.948916117901,90.5495620664648,101.361174247487,48.8737346797528,33.4278975630025,63.0040369954152,102.350169557278,110.933261090258,144.530275108477,273.470463333777,208.733525088309,181.62114658775,216.637339726576,276.697033299512,276.584821937544,246.313270861839,257.426595614061,307.77880873975,259.021070713686,242.476880577463,267.594172492375,207.276884355749,225.034886180264,180.255281299293,196.826298908277,168.818852537174,105.345637125147,85.093678143681,76.3057540187504,72.2899275169556,67.3075426853596,63.2529545871065,60.6023372747354,56.9568951101508,57.9859233377311,55.7178963721171,159.422520602024,268.910442188961,321.036206754875,277.757500849473,313.138714369382,270.253915146002,280.112600893777,261.413295284014,282.122838362548,306.717803067449,270.550731750995,260.221558972629,287.392647442586,270.303062872246,249.377200698529,239.656251154254,240.975274637156,223.057822918548,237.014309144336,274.356517740958,254.092989743739,255.29024001427,248.816952129702,238.138494785693,250.34016258803,240.015076311799,240.713680359809,243.775209336564,247.887107844858,252.629921711785,246.377519948395,268.273155179923,272.700181139667,276.308558295957,260.454228980108,259.147281394061,252.388552953339,239.913563071853,247.198394676881,258.186903172963,258.802283267183,257.896252202617,266.649843214462,283.259231175762,298.920733198384,299.45080178338,302.698736472513,327.685701342473,352.649849595187,382.299682079705,407.071591504391,442.215477486184,430.562467396482,404.489222480297,424.205481369239,427.986907531808,397.233036219415,371.612620916219,414.207200319638,474.092324399295,490.073175972747,420.378964323869,477.472799667299,487.368354524446,456.699511748249,569.913036042464,672.981996424557,674.456334891759,675.062121661048,625.287361978148,598.92375263496,596.944065290392,564.279755141505,617.689525992979,627.193784171632,602.909687986899,592.868728425781,642.603997146173,592.803034387854,630.389344392544,724.594660755177,772.674083670263,734.462908494485,599.745811700911,538.44151558444,643.147188725184,780.424918921234,697.965930311564,557.778747737194,441.674213967985,412.651716585201,393.232489743935,379.560604215204,379.02364282536,385.39949675484,384.23994979275,384.40725781791,383.786171121441,384.083203442898,389.283294212008,391.704291816059,395.695785902743,402.723384737369,418.303310696334,415.662092770715,399.191842495727,429.940883691083,496.760482188859,507.536273439525,561.470382425956,558.7442859728,568.240903068613,542.684056433408,573.391043210917,539.814291424142,465.816245223648,556.057714634932,736.534931403276,792.103517855103,810.845354753559,855.980380595323,891.186090153523,923.381162586111,999.212313121434,907.428288049555,745.839555722632,645.89354839387,654.371722174154,765.820569277075,675.30016637216,744.557824296166,922.860796676208,988.179937902426,934.094581159946,953.830540002612,995.233265889597,1112.54907188059,1295.17616884629,1324.42573448832,1297.51227320964,1134.0691179231,868.965365449416,926.042409677112,887.242976260021,897.348807392879,860.752550405463,888.426851325753,892.592984432012,910.274143578621,934.199502527646,975.337284884887,999.135313101001,1022.40720055832,1015.833376785,1024.12663996006,1027.45471906963,1056.07413450997,1088.1598681227,1103.99024404463,1231.68266819172,1327.4485824172,1283.87615987107,1306.32552076969,1434.48993038765,1504.32560814283
0,0,0,0,0,0,0,0,0,0,0,0,0,0,0,0,0,0,0,0,0,0,0,0,0,0,0,0,0,0,0,0,0,0,0,0,0,0,0,0,7.74894927090833e-07,0.000181788647272592,0.0104687104501375,-0.872069950942354,0.915485755764211,81.0099285159732,230.661872015019,241.426544853075,184.145129059686,202.939360460961,171.786455803388,80.3230196963249,28.9580299854908,33.5459464312769,48.1291726812533,113.620196614455,179.585403366488,194.894609310747,270.886785031964,194.426351868912,193.437124843364,262.806093644875,225.351133149228,266.542508145212,230.433487201828,234.218659149162,301.586100973206,258.131249608675,230.522608946636,255.445815858075,191.549903187959,191.162378887359,168.813662911803,152.496289600419,122.363411876043,93.8775853800779,82.6069282297953,72.8868719406141,67.9915450473857,63.0841916031162,59.6578574163733,57.9892132823502,55.3117878004086,52.4684713717121,66.2295449084113,153.207786151887,279.340197922731,334.588801698651,252.984725420363,270.81998090962,251.893514518096,237.604732621664,252.725759007775,265.974380474284,281.941668993926,242.4393338384,258.099686697906,269.462381811574,253.462384248058,223.094918959057,240.29658915763,240.035586311262,212.291087713572,258.339068273232,263.942903051133,234.41649953881,239.467186954525,252.194893979313,232.595476845263,232.994753024323,225.158495653606,227.534956400078,238.474717762342,242.686819806385,231.956945784943,261.638176926255,291.489324293578,266.980899048821,269.01624094356,268.788698085739,242.601930545649,250.570417221714,228.303390962061,230.217483167678,241.910984030283,239.813800181306,239.869648804107,255.081734776868,280.02977568381,306.380867070772,297.747718597573,335.057259357912,347.975849956454,354.197800059162,363.735527790447,386.679329769443,414.65886928252,405.808161207496,393.920650641793,434.706325368914,440.362058553501,402.851318670223,362.366048689962,418.239405881912,440.906737486874,436.960127234065,411.358699113908,445.234395660479,455.328447406069,484.689370235815,563.888555145233,603.059307535563,663.350773325123,709.183579827892,642.970298025216,573.22295041862,558.31392258337,545.912686567829,606.620272024859,558.570888773423,530.98923826062,533.527547918511,569.776129991944,533.950398624995,597.275689470389,668.373792320596,714.866417473342,682.948663754739,602.893964579138,561.83272222042,641.233546025718,672.414701713379,629.603560873903,528.833895741161,433.486344933984,397.967998944103,387.375825151422,370.394978515065,370.920195126628,380.259994948435,373.501440800933,373.327940882534,374.465878335051,373.981079722161,377.608340771777,380.781997579494,383.566575142216,390.33479452652,403.406477092513,403.444710251878,391.105733187719,433.624936232678,472.382370013797,490.358161750271,535.174511036131,529.193213044211,537.138372098357,514.705643978872,516.513202171492,502.883488116916,451.147148773983,535.508259349108,697.417176118809,810.196249625862,884.149751772773,953.870364287595,989.800692979512,1074.11781180174,1016.25176982266,813.355800914195,792.507098596188,680.234633235497,587.908893230492,644.342150900636,604.138208430142,739.220692804596,809.356272899593,809.112549048939,845.918288865079,920.738317007827,949.211829516693,1162.86033748951,1231.08014663107,1194.99145281462,1153.99758924951,1039.47285401899,836.754308901258,896.857861575695,801.655519000257,780.393745820587,921.870346351149,957.374309130529,1007.96046590614,1030.2248110315,1074.23460521373,1044.22245763733,1018.12193017803,1033.51578841704,1057.54561731286,1086.41037967597,1105.04274496183,1058.83692419446,1078.7575631742,1091.95295645188,1160.1410482709,1236.28982824592,1299.86366030153,1299.04535413187,1383.07969796629,1509.58480110916
0,0,0,0,0,0,0,0,0,0,0,0,0,0,0,0,0,0,0,0,0,0,0,0,0,0,0,0,0,0,0,0,0,0,0,0,0,0,0,0,0,-2.98949895781715e-06,0.00196196268557442,-0.0389609698673775,-2.46625199354445,19.4836260295454,151.859039505664,266.742649387258,270.327681544025,263.277063950479,209.823147267702,106.70596905994,23.7144303184061,29.3316187555687,45.0115409738072,128.440650182052,240.677409657676,296.713436571331,236.045903268477,149.482916408794,232.673787559224,231.88315671503,223.080444824531,309.21916493691,236.334797550153,212.657298731393,263.505915773646,259.352761033586,217.202094828032,226.51887536778,178.431304690423,162.723538296276,155.260732933079,119.146866594862,89.5533964148388,78.8670471140888,74.432011935314,68.1662854427476,63.4289401741854,58.9855073786048,55.7571285988273,52.9032324258367,51.6788562395615,65.4217468972975,104.630458561275,141.674575556156,251.287011278866,286.644979794821,227.29445523677,255.962727672033,240.916290547757,223.816350600349,245.215648389647,246.253121323928,261.520435753725,237.648622174038,241.290670400749,239.185513471978,245.483527554071,211.38778117297,238.044094462212,243.581534472652,218.980678354847,267.535589467314,232.050913903513,219.543558925534,217.687866942236,223.6953747156,209.413025110164,208.085286774225,206.376376670407,217.426383791728,228.0998477166,224.170985727769,229.086492363871,255.465069648253,270.613936762891,256.492316921635,255.505304421024,254.264043981557,232.831636992324,248.259807980209,231.363511624481,214.64540299384,227.726014833702,225.968680822637,251.682036423851,280.254058253297,291.963978456526,281.542114400621,283.262245291798,313.913114575087,330.526613571606,316.258726325581,327.091488574534,367.901441517396,386.740008002415,387.470094114263,385.236980246054,418.428736804916,427.446223855342,396.441992920004,359.924815542588,402.834026997555,395.105277047016,384.939484063893,378.005010655867,384.85382430877,413.484438569616,445.848785188609,508.701785026863,573.136850937214,682.480963043493,758.92425816303,757.829703132034,646.758350662396,539.673137417788,520.77414219833,555.894342276533,516.716468230706,518.075823267494,489.041390870248,500.456905377749,511.963006775414,576.027068513807,620.021105113413,654.185943649321,621.559379177844,590.440656907625,568.876092513774,539.642479527037,538.074571437759,520.091631444575,480.512785748159,433.075584796459,403.808104739293,407.466740425448,380.528100302527,357.420812427067,361.792028580898,363.435111989009,363.848945265392,365.582921270842,365.099045364213,367.826347793999,369.428016459816,369.367313786006,373.677815950022,388.422308258395,391.056612708666,392.07057327193,436.039594891946,449.60982592658,466.499301518614,500.137973869116,490.099218760734,505.296539099104,488.107659754645,477.967467446773,463.169028895344,444.637054116799,553.039303376982,742.289540838371,848.196567202446,921.895771531345,1002.80018224402,1064.0317474743,1150.1565517105,1021.45423029226,745.959125746521,626.722693200062,545.309854282416,544.970039632477,521.568056151656,544.260286543227,635.92926135312,674.57995584381,730.577000092478,829.418093522963,808.632710328472,886.051148234216,1102.30108773598,1094.02055132061,1084.47731566364,969.824896735484,874.07446264151,766.036694074712,776.486237249569,827.068786293589,872.245082526855,920.953140551728,1098.72815305343,1139.25133441909,1180.97117079237,1203.79572422039,1116.22840890125,1102.59223436028,1131.37951034052,1086.5923855471,1124.38387810002,1191.9145400128,1099.33469021019,1171.53586624481,1117.81536505011,1105.7831959418,1188.17956337213,1350.67181249898,1431.36127327022,1472.96164202217,1625.43940110016
0,0,0,0,0,0,0,0,0,0,0,0,0,0,0,0,0,0,0,0,0,0,0,0,0,0,0,0,0,0,0,0,0,0,0,0,0,0,0,0,0,4.77459988807688e-07,3.10533042633274e-06,0.00792286053785005,-0.511259233585359,-1.77605174205495,68.1437605084965,218.993768329647,266.354281275198,200.189946894028,139.675825158888,72.9627316001867,20.5073053999488,22.8100182187117,49.0083975071159,162.723758236759,253.308038606156,287.215185755701,201.952749526931,150.003355592307,226.741912390975,210.305793789325,204.732075844396,254.220866259745,234.884818275799,201.534054892293,230.021559954625,224.971195716109,193.478218137656,204.558478403867,188.254360623557,146.480590630987,121.542750073325,100.725733935258,82.9710222938284,69.9481146361176,65.6332601916269,62.5906301925957,59.4044939934641,55.8014444671161,51.2796729106652,43.7416392877265,58.4775662285983,133.082135931564,175.645978752097,143.748826125379,212.275189812963,258.364844649414,214.697304721801,257.40636461376,214.526998472684,213.42520486768,240.748012961262,240.954460437809,238.64643501511,222.66439083809,213.705202101914,222.688620961641,215.912808164498,202.231168657325,242.794227787279,219.627838567624,223.642850461913,233.608273501344,209.932613544077,203.685568062578,198.460125555443,195.609295630737,194.876307509792,192.289904552967,196.704008509139,204.512445577189,208.781882751117,209.035007374923,241.340719929149,259.804245103694,258.958045014835,232.390222374467,231.680146999223,233.264894455443,219.592562549014,228.388454292282,227.539245120352,201.994232849669,206.445696777841,228.877939430658,284.228085808648,290.713725093132,267.040255218724,263.427335445337,294.716064766571,317.244476392901,313.608268962428,296.597343531562,315.391713026547,350.314575148128,359.801659364586,373.48275868627,379.328457215345,401.070067346459,390.899891746036,374.176620985773,342.56264557875,350.722568542291,354.88674124018,359.81598947697,353.419372148266,375.085211799539,388.358810741893,445.418354708909,519.702271273963,547.236231464987,635.469268579353,755.503713163251,764.569503651686,692.018527604532,601.43774474357,499.305580521424,510.466420428132,500.248686746358,503.601801388962,472.088114244294,455.60741213205,487.854613817236,528.518847300463,542.892047668735,542.962368505383,529.788767388373,530.25389550868,518.061015331513,473.31767155486,474.373017631817,461.672446777412,436.742086427742,426.035733818136,401.497583648777,399.304412126093,386.307929221737,353.36813263661,352.73521011702,358.3462177208,355.271097999929,356.608367549782,357.475460309804,359.163227072918,359.132076321498,356.965084873672,359.6105806315,367.059570062512,369.868682669389,384.907727130156,428.140187208327,434.084865325463,468.602139847934,487.02738421352,462.713294291272,473.130993157396,463.996088902923,443.970988128956,427.812365439395,443.896061191321,564.827678750803,750.386120617063,873.792165265965,924.449497999928,984.479155952943,1069.0633617172,1098.60733115296,948.225059505767,672.445298748619,509.236794708837,510.611500158275,537.432645422607,548.368382999752,604.136586133881,554.675551139186,656.411958994927,811.41159833468,856.593815328736,753.043016026922,866.330581541229,980.067030253241,977.492511155324,994.404325446654,863.146624212078,723.588107462014,750.978848046522,809.021499145652,923.272793066762,1037.71149694257,968.774252048594,1075.99324478561,1228.55999962137,1289.98048823986,1308.59950290065,1214.5715480735,1175.51800054724,1238.81597205626,1162.38676910486,1123.0116408714,1189.14106358605,1119.32998287076,1193.67101452951,1182.45087097682,1112.58805378345,1195.90965130961,1355.7320157123,1498.01470497481,1613.16138623822,1720.23441266115
0,0,0,0,0,0,0,0,0,0,0,0,0,0,0,0,0,0,0,0,0,0,0,0,0,0,0,0,0,0,0,0,0,0,0,0,0,0,0,0,0,0,1.3406132081496e-07,-2.30211034195726e-06,8.92202809749873e-05,-3.12318307637659,25.365840287804,158.480210778449,198.507504501341,171.836104533131,92.9535234008175,33.9779088202747,16.8284148931805,17.799786013686,83.6461375207068,159.825628230468,255.895314587139,239.332734804145,169.882057172697,146.249433945957,205.616850401755,218.819384106406,179.13151395536,204.615193563945,213.875101553792,184.001090282205,197.154600912806,203.343416261796,191.788688203228,188.511150634636,156.925119925864,125.867523163674,104.884184684367,89.400979625951,72.0966500934219,60.0771740153647,58.2905263460222,57.2296865375433,54.7649835532038,49.5394230700552,43.5781976588244,52.9154244142789,111.26772445955,154.216316754334,261.143077479768,244.763478690954,277.110441678305,260.486744191629,204.817613733467,215.683368757798,194.064234707969,205.258150115372,216.347194583278,217.301076194635,216.360124990973,206.696026180634,199.833349986763,233.966625642503,200.547055094002,212.087913385618,250.148631330934,201.714495366667,206.475486252124,203.884984960576,188.481926211754,189.235282409775,183.126144280647,184.198725379093,184.313126741683,180.992701205007,188.328683157384,196.959038888537,205.449317241313,208.874639507559,220.218332632905,236.092901697476,234.383879327864,215.083996437618,218.423211303766,220.629497571685,211.494873294336,196.813384339849,189.912627610709,187.101213721159,199.613115656201,247.732961022046,274.254205389824,274.502498217333,246.285419797658,271.136724161727,304.637765393983,308.70871891511,281.555983405703,320.498260576819,352.01333241784,361.148416009458,346.222540204129,372.94231890178,362.938689630607,372.495338102593,357.700987858452,337.701729520889,326.091742920307,328.801202978448,338.015926123529,342.394123697593,352.573656137314,377.416759655383,399.032428875894,422.007928372549,470.729246026801,496.932281169032,552.385525889559,716.602019152424,786.003700888959,702.509286243383,630.573684833295,545.935471444579,486.545732947351,499.923501113872,495.588623096852,454.680739827199,429.670180065297,467.787402243323,494.373965740192,493.308079189613,487.057059298115,477.298064771188,476.765245060548,479.075737611372,450.851285641043,437.940201200731,440.222760579414,425.071455576661,400.768151460428,383.747695304781,380.247436694055,382.923714266773,362.09062200452,349.518680500803,349.8001648626,354.077120556539,358.042317776103,351.244845548025,349.768967660505,348.223081582175,346.789714145378,352.113717673326,358.655579785626,362.484706133204,372.595155703267,423.634578166405,443.237136467579,521.335425470331,489.676902897901,446.159937280325,459.278419602934,444.969986413298,406.116501789035,406.268874655103,455.010197554756,534.308546799675,674.711174973351,794.983649963453,821.08518572578,876.970747528739,989.981386397094,967.282191518018,794.420227725066,586.735674776013,545.418419761739,647.298927231326,688.672229334527,681.644125405367,702.340943865874,625.730629039729,557.334929684669,661.156519140602,805.67665243811,753.86853043387,869.289844346907,878.071307812338,901.31889641744,879.134709643035,791.745911271139,710.67238589254,862.725658837163,944.9079755298,1035.17290032109,1112.20355119594,1118.22746931274,1040.48499431837,1251.1130906846,1387.1020165487,1395.96330181504,1300.46090533297,1267.41114269371,1300.00300739117,1199.27468846381,1149.31097369221,1208.62642610755,1168.52855228966,1231.05601189736,1285.21413274149,1197.76061877414,1175.86658590261,1282.4397671852,1449.22153772211,1618.70006922879,1725.6747791068
